ply
format ascii 1.0
element vertex 1287
property float x
property float y
property float z
property uchar red
property uchar green
property uchar blue
end_header
-22.4185 -50.3945 -3.06024 255 255 255
-29.8896 -50.8551 5.64049 255 255 255
1.42476 -80.8894 136.824 255 255 255
-28.0058 -51.7121 3.49138 255 255 255
23.1568 -49.39 -18.567 255 255 255
-26.5732 -51.4257 2.06136 255 255 255
-25.7938 -52.615 1.39223 255 255 255
-26.3659 -52.462 1.72971 255 255 255
35.325 -50.7171 -17.6752 255 255 255
79.2126 -66.2973 40.0037 255 255 255
33.1923 -50.7316 -17.9442 255 255 255
26.0071 -51.3378 -18.074 255 255 255
31.7753 -52.5278 -18.3338 255 255 255
73.7782 -67.1789 46.2229 255 255 255
-22.2999 -52.2539 -2.37076 255 255 255
35.992 -51.8409 -20.6281 255 255 255
-33.1918 -69.2245 76.8204 255 255 255
39.4232 -51.3962 -21.2248 255 255 255
-1.94553 -81.5683 135.242 255 255 255
-26.504 -54.7261 3.51266 255 255 255
22.949 -51.3007 -19.0058 255 255 255
26.6581 -52.1566 -19.8382 255 255 255
-18.7072 -67.0594 59.048 255 255 255
-26.1267 -54.0066 4.5427 255 255 255
-24.5775 -54.4621 0.302569 255 255 255
-29.0496 -56.1941 3.29138 255 255 255
40.0165 107.485 -23.7603 255 255 255
8.53018 97.1168 2.55178 255 255 255
88.9225 50.2004 44.3549 255 255 255
0.741221 96.3907 4.53929 255 255 255
-34.3598 103.899 4.11231 255 255 255
-171.955 216.062 -117.854 255 255 255
40.0544 106.122 -24.4486 255 255 255
7.93537 95.6207 0.760005 255 255 255
4.06379 93.5234 4.48319 255 255 255
25.1068 104.936 -16.6238 255 255 255
34.7472 104.634 -22.518 255 255 255
12.793 103.726 -13.8449 255 255 255
-184.421 200.081 -99.4862 255 255 255
10.4165 100.125 -12.1756 255 255 255
101.222 46.5745 38.2409 255 255 255
6.99443 89.4682 4.68197 255 255 255
-172.656 195.35 -97.9782 255 255 255
22.3442 99.5095 -16.223 255 255 255
-171.564 201.591 -112.646 255 255 255
7.84688 88.8181 2.73434 255 255 255
-168.779 215.708 -136.18 255 255 255
107.565 45.9688 36.4148 255 255 255
-23.4719 95.719 -0.884546 255 255 255
-24.0455 95.2189 -0.366848 255 255 255
-17.1909 94.3908 -3.38941 255 255 255
-146.142 123.893 -12.5324 255 255 255
15.7736 92.1049 -13.6672 255 255 255
-11.9687 90.9216 -4.74459 255 255 255
-169.315 208.396 -139.587 255 255 255
69.8839 39.0519 48.4955 255 255 255
73.8101 39.8525 46.585 255 255 255
28.2652 90.8597 -19.9844 255 255 255
-2.57435 86.2801 -4.54104 255 255 255
-1.90099 85.3645 -4.41148 255 255 255
7.79981 80.3715 0.112314 255 255 255
74.3838 36.9907 48.8482 255 255 255
-164.36 203.369 -140.833 255 255 255
-3.56117 80.6968 3.97414 255 255 255
-1.25696 78.6424 3.51883 255 255 255
-1.20974 78.3369 3.5659 255 255 255
71.0661 37.1199 46.0696 255 255 255
-3.00557 78.8974 4.12376 255 255 255
-2.69698 77.9678 3.94503 255 255 255
30.9976 88.4563 -21.9344 255 255 255
18.9005 86.4966 -17.3805 255 255 255
1.22695 77.1593 1.06649 255 255 255
9.06741 76.3231 -0.355654 255 255 255
7.44844 77.403 -2.03381 255 255 255
36.854 77.558 -9.96177 255 255 255
-0.613182 75.0473 2.84629 255 255 255
5.56682 75.9234 -0.360117 255 255 255
35.0604 76.0702 -9.64956 255 255 255
13.8107 76.2804 -2.62444 255 255 255
11.2702 76.0734 -2.14681 255 255 255
13.4543 75.4844 -2.78718 255 255 255
-31.7077 29.0629 84.9731 255 255 255
-29.1035 74.3414 11.3555 255 255 255
-27.6336 72.9604 12.3602 255 255 255
-26.8683 71.7677 12.18 255 255 255
85.8198 32.8899 42.8852 255 255 255
-58.8883 28.3842 94.5608 255 255 255
19.8285 81.746 -17.644 255 255 255
13.2705 75.0818 -3.9737 255 255 255
-43.9142 27.3538 89.2899 255 255 255
-26.0046 72.8676 11.4755 255 255 255
-4.16763 73.3277 3.99976 255 255 255
38.0297 74.6311 -10.051 255 255 255
-5.01417 72.8633 3.40791 255 255 255
5.49311 73.3527 -0.171061 255 255 255
4.22607 73.4132 0.408629 255 255 255
5.47861 74.1105 -1.16268 255 255 255
6.73191 73.2766 -0.0556535 255 255 255
-59.7204 27.8209 93.5472 255 255 255
7.93117 72.9715 -0.389301 255 255 255
-26.4149 28.0402 83.3428 255 255 255
-53.6422 27.4262 93.2324 255 255 255
-44.7203 27.9119 89.4132 255 255 255
-42.393 27.4453 88.3901 255 255 255
-39.9665 27.7456 87.9355 255 255 255
-14.0408 28.3683 77.7702 255 255 255
38.5097 81.4863 -23.905 255 255 255
38.3274 82.0352 -24.0599 255 255 255
88.8257 31.0706 41.2425 255 255 255
-23.053 26.8207 81.5922 255 255 255
-23.829 27.4504 81.8069 255 255 255
0.0476554 72.4636 1.67358 255 255 255
1.42878 72.2312 0.787423 255 255 255
1.8766 73.5309 0.184099 255 255 255
33.9405 72.9229 -10.6702 255 255 255
3.36774 73.387 -0.373426 255 255 255
2.17555 72.0502 -1.51427 255 255 255
-3.21908 71.637 3.90246 255 255 255
-42.7971 25.7751 88.0231 255 255 255
-42.9543 26.8416 88.0743 255 255 255
-4.9977 70.3868 3.35034 255 255 255
-4.35212 69.6384 3.58689 255 255 255
34.7818 72.6754 -11.6341 255 255 255
3.00505 71.0849 -1.37585 255 255 255
36.5623 71.565 -10.1676 255 255 255
43.6055 76.662 -21.8015 255 255 255
-21.7088 73.2385 2.57742 255 255 255
36.2473 70.3651 -10.7102 255 255 255
87.2593 29.2361 40.2938 255 255 255
77.7953 30.9881 41.2227 255 255 255
6.13256 70.0091 -1.14266 255 255 255
1.24315 69.9153 -3.12619 255 255 255
-0.462464 69.3553 0.983218 255 255 255
-37.1795 66.6668 14.2043 255 255 255
9.81957 68.4211 -3.11826 255 255 255
35.9062 66.9161 -10.5798 255 255 255
-22.6642 68.999 6.56514 255 255 255
-22.6181 68.5681 6.99194 255 255 255
-18.7691 68.8756 5.44916 255 255 255
-18.5925 68.6417 4.88951 255 255 255
-28.0067 65.9742 12.9431 255 255 255
21.9189 68.8909 -8.56831 255 255 255
25.2652 69.202 -10.2146 255 255 255
-6.72867 68.1427 0.753808 255 255 255
2.54613 68.5464 -3.25499 255 255 255
23.6912 68.888 -9.15675 255 255 255
17.4225 66.2913 -5.97846 255 255 255
23.8206 68.0348 -10.1461 255 255 255
22.4447 68.2945 -7.89194 255 255 255
28.3859 68.3119 -11.6248 255 255 255
30.0109 68.4164 -11.7962 255 255 255
30.3758 68.955 -12.4667 255 255 255
-9.64438 65.9133 3.93395 255 255 255
36.8121 68.5245 -14.891 255 255 255
40.3842 68.9449 -15.4698 255 255 255
40.8834 69.065 -16.4803 255 255 255
-17.4138 65.7075 6.02098 255 255 255
5.84509 68.2516 -4.44276 255 255 255
11.4757 65.9858 -2.86288 255 255 255
22.439 66.584 -7.523 255 255 255
-1.09741 65.9365 1.41845 255 255 255
71.3869 25.9872 45.0437 255 255 255
3.42147 65.5169 -2.30872 255 255 255
-24.0755 65.2627 6.09195 255 255 255
-17.6388 63.766 6.53243 255 255 255
-0.171523 64.8707 -2.34451 255 255 255
-0.6747 64.5751 -1.49317 255 255 255
20.203 64.0344 -7.05811 255 255 255
-3.61801 63.4745 3.04761 255 255 255
10.1922 63.2751 -3.22678 255 255 255
37.0565 64.6034 -11.3775 255 255 255
7.6224 64.7888 -3.44652 255 255 255
-16.8009 62.9419 4.48454 255 255 255
-17.3958 62.657 5.7945 255 255 255
23.037 63.9111 -8.95258 255 255 255
41.4352 64.248 -15.5572 255 255 255
16.8518 63.6753 -5.77616 255 255 255
29.2601 63.4854 -11.593 255 255 255
-17.8452 29.2648 62.639 255 255 255
-10.82 61.1622 4.3389 255 255 255
10.4767 62.5475 -3.8559 255 255 255
-12.3852 19.3296 76.8839 255 255 255
-16.6716 61.1025 3.41465 255 255 255
71.0746 22.261 47.1531 255 255 255
-5.17378 61.4365 1.70075 255 255 255
19.083 63.1697 -7.13203 255 255 255
-45.2619 16.787 91.8429 255 255 255
-40.6767 16.6068 90.0685 255 255 255
92.0707 24.5441 34.8971 255 255 255
-2.81684 61.5108 -1.20707 255 255 255
-13.758 60.6103 4.56774 255 255 255
9.49294 61.9391 -5.46415 255 255 255
33.185 62.0008 -12.3916 255 255 255
23.4047 61.1375 -8.3351 255 255 255
17.7857 60.5847 -5.57747 255 255 255
56.2127 43.2767 13.5487 255 255 255
-11.112 59.8543 3.99955 255 255 255
-32.8235 15.7464 86.5377 255 255 255
-31.2906 16.3828 85.1777 255 255 255
-30.3772 16.3783 84.8711 255 255 255
-55.7853 14.6652 93.5667 255 255 255
-55.9198 16.4846 93.6025 255 255 255
-22.5845 16.0509 83.0795 255 255 255
41.4951 63.6511 -18.2682 255 255 255
3.89558 60.0986 -4.08759 255 255 255
55.5508 42.5803 11.3019 255 255 255
14.447 60.0807 -5.48565 255 255 255
-1.02495 60.0038 -3.87663 255 255 255
-58.7404 15.4307 93.5247 255 255 255
-57.8135 14.6339 93.3388 255 255 255
-53.9234 14.9189 91.3741 255 255 255
-15.0984 15.6805 80.1899 255 255 255
24.1976 59.0457 -12.7268 255 255 255
-54.9619 14.7685 92.4122 255 255 255
0.817427 57.6581 -4.1702 255 255 255
53.1214 44.0769 5.14365 255 255 255
93.3779 20.2373 37.2542 255 255 255
-24.5398 15.4665 81.9827 255 255 255
34.7971 56.4535 -10.2982 255 255 255
33.8689 56.0866 -11.2867 255 255 255
-19.5442 13.7856 79.2088 255 255 255
-24.3678 14.0613 81.5366 255 255 255
91.1525 19.5901 38.6349 255 255 255
5.72353 58.5737 -7.05322 255 255 255
27.9168 58.5944 -14.5002 255 255 255
-9.66006 54.682 3.99296 255 255 255
-49.4378 13.5126 90.5682 255 255 255
-14.661 54.6736 5.12752 255 255 255
-3.42963 57.6469 -4.96367 255 255 255
81.6359 17.65 44.2614 255 255 255
23.6001 54.2889 -6.85479 255 255 255
-13.3578 15.6218 72.9912 255 255 255
39.8531 56.1998 -17.1567 255 255 255
4.40799 57.0728 -8.53768 255 255 255
25.7481 53.2132 -9.65672 255 255 255
-33.3472 54.3829 8.19269 255 255 255
-4.19565 54.4022 -3.07076 255 255 255
-4.70898 55.3721 -3.19269 255 255 255
51.0316 43.1593 0.2423 255 255 255
-4.62395 55.2336 -7.10724 255 255 255
40.032 54.2862 -16.9604 255 255 255
12.2078 53.2262 -7.34275 255 255 255
52.1932 42.6137 -0.156932 255 255 255
7.73356 53.2005 -8.18522 255 255 255
7.07942 55.1288 -8.13013 255 255 255
69.2797 14.2659 46.2403 255 255 255
11.1427 52.4532 -6.83715 255 255 255
-19.3641 49.4764 5.54809 255 255 255
4.06538 52.9994 -4.09423 255 255 255
-3.7034 52.6523 -3.17584 255 255 255
-56.4277 9.6497 91.818 255 255 255
37.2223 50.4645 -11.8885 255 255 255
38.3688 50.9366 -14.5353 255 255 255
-10.9818 48.4988 4.15683 255 255 255
9.62506 51.1297 -6.78852 255 255 255
-6.42839 50.5189 -1.69255 255 255 255
-5.45897 50.9415 -1.50002 255 255 255
20.5082 49.5672 -7.73915 255 255 255
20.3961 49.7719 -7.8239 255 255 255
27.6478 49.3842 -9.97853 255 255 255
-11.9502 9.81477 76.444 255 255 255
74.9813 11.8205 47.246 255 255 255
104.035 16.257 29.6622 255 255 255
26.3298 50.3379 -10.734 255 255 255
-29.2439 8.16054 82.1057 255 255 255
95.79 12.4973 35.7082 255 255 255
103.693 14.8284 31.1709 255 255 255
88.7145 15.2091 32.0489 255 255 255
78.3035 11.6896 43.208 255 255 255
19.4484 45.6732 -7.73077 255 255 255
20.7995 46.8454 -8.36368 255 255 255
21.9968 45.4331 -8.97154 255 255 255
-15.0084 44.2242 4.36574 255 255 255
20.5032 45.0196 -9.36604 255 255 255
-34.606 5.90767 84.3856 255 255 255
44.3202 46.1921 -16.7683 255 255 255
-31.1619 44.2365 10.2253 255 255 255
33.8417 44.3812 -11.1836 255 255 255
33.6498 44.5929 -10.8322 255 255 255
-19.2338 43.1592 5.99407 255 255 255
8.45869 45.5547 -6.97234 255 255 255
-36.1246 5.39876 85.3436 255 255 255
8.60673 45.0275 -6.44995 255 255 255
18.0895 44.6931 -7.5683 255 255 255
1.61564 45.1266 -3.10005 255 255 255
10.8795 44.7242 -7.71862 255 255 255
95.4513 9.34285 35.2733 255 255 255
-11.7123 3.60151 77.7431 255 255 255
46.8403 41.4994 -11.2982 255 255 255
-14.1405 42.9523 1.81736 255 255 255
-33.008 40.4306 9.19134 255 255 255
-33.5142 41.1837 10.5022 255 255 255
-25.8466 38.9968 9.17323 255 255 255
9.38314 42.9534 -7.58828 255 255 255
-39.2983 2.68758 86.4436 255 255 255
102.366 8.32388 33.393 255 255 255
11.4273 42.1777 -7.45124 255 255 255
-57.1564 1.58235 92.4461 255 255 255
-56.0695 2.50285 92.0801 255 255 255
34.6693 40.1473 -10.9489 255 255 255
34.3666 40.5247 -11.78 255 255 255
-21.4288 40.2958 5.01742 255 255 255
2.98957 41.8902 -4.58012 255 255 255
-6.97291 41.669 -1.29349 255 255 255
65.7446 7.49209 42.6837 255 255 255
80.1715 8.10786 37.452 255 255 255
-19.402 39.0376 5.20747 255 255 255
-29.4654 35.3432 12.0468 255 255 255
38.2601 38.1114 -12.2254 255 255 255
-18.5635 38.2891 4.62259 255 255 255
6.34929 39.8745 -6.06232 255 255 255
-29.4565 35.2092 11.9436 255 255 255
32.0692 38.3099 -11.6057 255 255 255
32.8736 37.263 -12.0721 255 255 255
24.7835 37.3741 -9.92542 255 255 255
33.6926 37.4924 -10.8422 255 255 255
31.9224 37.6245 -12.9509 255 255 255
78.193 3.51461 44.3979 255 255 255
68.2781 0.573576 50.4218 255 255 255
-39.6535 -0.92275 85.1663 255 255 255
26.1589 37.6489 -10.377 255 255 255
69.6185 1.64104 48.1206 255 255 255
68.6259 2.17111 47.8204 255 255 255
68.712 2.34033 45.9651 255 255 255
-19.2675 35.0718 4.86805 255 255 255
-10.5454 35.7659 -0.994781 255 255 255
-11.197 35.5553 -0.597514 255 255 255
40.1535 36.5645 -16.1855 255 255 255
97.4135 1.10523 36.8525 255 255 255
-14.2556 34.685 1.76956 255 255 255
43.7116 34.6094 -16.8404 255 255 255
-41.4608 -3.8406 87.0198 255 255 255
30.5908 34.7033 -12.8966 255 255 255
-18.7078 32.2646 4.63726 255 255 255
-17.5723 32.9621 1.66399 255 255 255
66.2681 2.72582 42.5527 255 255 255
16.2403 34.5861 -10.1865 255 255 255
-17.6251 4.82156 60.1665 255 255 255
-28.1948 28.597 12.4796 255 255 255
26.1343 33.0821 -11.3448 255 255 255
-19.4057 31.0388 4.27309 255 255 255
-10.0513 33.2186 -0.0127227 255 255 255
47.1556 30.4088 -11.6 255 255 255
100.203 0.789119 32.126 255 255 255
96.7326 1.22146 35.247 255 255 255
-55.4058 -4.95518 91.4614 255 255 255
-52.668 -5.52618 90.0885 255 255 255
34.4764 29.9698 -10.9706 255 255 255
46.1057 28.8598 -13.3705 255 255 255
45.8906 29.2305 -14.4589 255 255 255
-21.4685 28.6265 7.03924 255 255 255
-34.6116 -5.79403 85.3989 255 255 255
-20.6045 28.8207 5.96434 255 255 255
35.2824 29.7581 -11.8511 255 255 255
96.5623 -1.09486 36.4626 255 255 255
63.2212 4.41925 35.7684 255 255 255
66.858 -0.879327 43.8828 255 255 255
-21.9742 28.8925 7.11587 255 255 255
72.2572 -3.28192 45.6478 255 255 255
-14.3937 31.4396 -0.0451028 255 255 255
41.8194 29.7804 -15.7424 255 255 255
3.93008 30.8248 -10.1041 255 255 255
24.1423 29.5083 -13.5496 255 255 255
30.7393 27.8496 -13.8586 255 255 255
21.2456 28.4436 -11.9445 255 255 255
21.6684 27.7503 -12.2963 255 255 255
-33.5361 -9.14025 83.2312 255 255 255
-16.9973 26.4435 1.7058 255 255 255
-25.5153 24.2747 7.80365 255 255 255
56.7572 10.2124 15.2117 255 255 255
10.3984 28.3084 -12.3041 255 255 255
-54.4558 -8.78351 90.3023 255 255 255
-11.1759 -9.45103 79.3319 255 255 255
-17.2228 25.5577 0.694716 255 255 255
93.0832 -0.903051 28.4646 255 255 255
6.85075 28.0188 -10.4071 255 255 255
-52.0873 -10.0495 89.1538 255 255 255
44.7491 25.1355 -15.8943 255 255 255
96.1539 -3.90862 33.9725 255 255 255
96.2928 -5.53803 34.0468 255 255 255
17.6213 26.46 -13.3168 255 255 255
30.6645 25.9603 -13.7368 255 255 255
97.6445 -3.89484 34.3104 255 255 255
11.5525 27.0703 -12.5984 255 255 255
11.534 27.6131 -11.6679 255 255 255
-25.5591 22.723 8.39709 255 255 255
13.2819 26.5295 -13.3663 255 255 255
13.4297 26.1194 -13.8031 255 255 255
100.118 -5.61769 33.0812 255 255 255
17.4183 24.2451 -12.1665 255 255 255
20.1302 25.1118 -12.6893 255 255 255
36.4377 22.8476 -13.0041 255 255 255
36.0908 22.9652 -13.4531 255 255 255
-23.0735 22.1098 5.49922 255 255 255
-16.6636 23.7762 -1.32363 255 255 255
-20.7664 22.71 2.63591 255 255 255
1.82756 24.6786 -8.46473 255 255 255
14.3866 24.9071 -12.7385 255 255 255
-16.2254 22.5594 -1.91334 255 255 255
58.1136 6.17994 15.2171 255 255 255
30.6483 21.4006 -13.4173 255 255 255
-27.9982 -12.6525 81.04 255 255 255
-23.3344 18.5955 8.32263 255 255 255
-16.2302 21.6727 -1.71684 255 255 255
22.1949 22.214 -13.5163 255 255 255
-17.0559 22.1619 -1.13787 255 255 255
37.8525 21.6982 -14.1413 255 255 255
37.9683 20.6975 -14.2485 255 255 255
-29.5607 -13.3709 81.2972 255 255 255
46.1788 20.3049 -14.7154 255 255 255
-24.7595 -12.9366 80.1211 255 255 255
21.8501 22.0529 -12.3388 255 255 255
-13.263 -14.176 74.6514 255 255 255
20.2136 23.3325 -14.4582 255 255 255
29.3139 20.5108 -13.1308 255 255 255
3.91351 22.3469 -10.8786 255 255 255
-25.84 17.1719 8.1215 255 255 255
-24.9262 17.4518 8.17404 255 255 255
61.1347 3.12814 15.8069 255 255 255
-15.0324 20.2946 -1.97049 255 255 255
-20.271 18.9369 1.20304 255 255 255
57.5439 3.4103 16.1382 255 255 255
-49.7763 -15.7273 87.8663 255 255 255
-19.7586 18.5922 1.22587 255 255 255
-19.2248 19.1514 1.58364 255 255 255
21.9165 20.8099 -12.996 255 255 255
61.3714 2.21897 15.1924 255 255 255
60.3799 1.68815 15.7189 255 255 255
-31.7059 -15.943 82.4228 255 255 255
-23.8249 -15.1362 79.1999 255 255 255
60.3516 1.98125 15.7541 255 255 255
-22.3158 -15.0994 79.3726 255 255 255
48.6425 13.3254 -10.5948 255 255 255
-31.7063 13.6897 10.6397 255 255 255
-17.8589 15.7018 -0.948397 255 255 255
-23.776 12.8167 6.10576 255 255 255
-22.778 13.9052 3.11314 255 255 255
44.8577 14.3715 -16.3105 255 255 255
-53.7131 -18.7766 89.1794 255 255 255
-53.5646 -18.8177 89.5192 255 255 255
-23.8878 13.6991 4.97972 255 255 255
57.2106 -0.474918 15.476 255 255 255
-30.7721 10.9466 10.568 255 255 255
32.8904 13.2256 -12.6416 255 255 255
-33.9627 11.8577 8.44457 255 255 255
5.81596 16.2199 -10.9012 255 255 255
31.439 13.0209 -12.7032 255 255 255
18.8229 15.3549 -15.7789 255 255 255
56.3393 -0.3563 13.1197 255 255 255
19.7682 15.0303 -15.6101 255 255 255
-24.0324 12.304 3.34629 255 255 255
-18.6816 12.473 1.09591 255 255 255
-18.8934 12.5971 1.22009 255 255 255
-16.9056 13.5185 -2.67481 255 255 255
58.0062 -2.93637 14.6447 255 255 255
-14.1099 -19.0396 74.7452 255 255 255
20.8712 12.9013 -14.6632 255 255 255
27.2762 12.3471 -14.473 255 255 255
-31.1447 -20.5776 81.0064 255 255 255
-18.8189 11.0221 0.28647 255 255 255
-43.1459 -21.0059 85.9081 255 255 255
-23.5801 -20.686 78.8983 255 255 255
17.4526 12.8753 -15.8293 255 255 255
-9.60255 11.5262 -7.30283 255 255 255
38.9434 8.83789 -13.7198 255 255 255
59.8306 -3.58576 12.7851 255 255 255
61.937 -5.03116 14.486 255 255 255
59.5473 -4.37192 14.0756 255 255 255
-23.5461 7.14783 5.81699 255 255 255
33.4857 8.61749 -11.7557 255 255 255
32.539 8.75019 -12.2351 255 255 255
40.3718 8.94506 -14.5294 255 255 255
50.2012 5.1681 -8.85024 255 255 255
-45.2407 -21.3205 85.0914 255 255 255
-20.3201 8.36663 2.08964 255 255 255
-19.9481 8.07906 2.33814 255 255 255
7.11333 10.8233 -10.7127 255 255 255
-28.5597 -22.504 80.2583 255 255 255
-24.152 -21.8552 79.0294 255 255 255
-24.7897 6.62734 7.88325 255 255 255
48.739 3.01385 -8.2629 255 255 255
33.039 7.16612 -12.1502 255 255 255
33.4395 7.71945 -12.8437 255 255 255
6.81859 9.40971 -11.7578 255 255 255
-51.0806 -23.8821 87.8976 255 255 255
24.2212 7.77361 -13.9433 255 255 255
-31.6248 -0.747452 25.3688 255 255 255
-8.87965 8.67276 -7.97818 255 255 255
-3.71175 9.61626 -11.5926 255 255 255
21.8824 8.43452 -14.3955 255 255 255
-21.2435 5.7652 1.18723 255 255 255
16.1197 9.08223 -16.9919 255 255 255
-22.9723 5.07271 3.69393 255 255 255
-9.18201 7.86485 -6.59207 255 255 255
28.1292 6.09632 -13.8593 255 255 255
0.158785 7.60707 -14.2059 255 255 255
-31.8877 -24.9149 81.3266 255 255 255
33.8681 5.21064 -14.3657 255 255 255
16.8012 6.35773 -17.5026 255 255 255
33.0587 4.16971 -13.2 255 255 255
6.89091 5.35338 -13.7104 255 255 255
14.896 7.47892 -19.0956 255 255 255
-29.1702 0.798196 8.62515 255 255 255
-19.1986 -19.3533 57.8106 255 255 255
-32.9751 1.57637 8.56824 255 255 255
49.2252 -1.56905 -11.8907 255 255 255
40.9045 2.8046 -18.8475 255 255 255
-22.0707 -0.729493 2.15601 255 255 255
45.6431 -0.455723 -13.6798 255 255 255
45.1687 -0.991849 -13.7923 255 255 255
-40.6721 -28.7536 83.4617 255 255 255
-24.573 -28.2299 77.8978 255 255 255
-15.7754 -27.9868 75.0337 255 255 255
-16.0591 -28.1808 75.5118 255 255 255
-7.29447 1.91456 -8.98992 255 255 255
41.0781 1.38678 -20.9481 255 255 255
23.5565 1.31476 -15.3932 255 255 255
-45.2925 -29.8366 85.3084 255 255 255
47.3315 -2.09739 -14.2829 255 255 255
-16.1529 -29.5381 76.125 255 255 255
45.8725 -1.51177 -14.2845 255 255 255
-45.3023 -30.1664 85.3033 255 255 255
-25.4969 -30.3231 78.9483 255 255 255
-25.3882 -31.4232 78.3517 255 255 255
-33.9345 -31.189 81.656 255 255 255
14.324 -0.38133 -19.765 255 255 255
-50.0311 -31.8988 87.2492 255 255 255
-48.1396 -32.8998 85.6295 255 255 255
-27.5241 -14.7768 31.8636 255 255 255
44.1847 -3.30592 -19.0384 255 255 255
13.9606 -0.519094 -19.7817 255 255 255
14.0481 -1.78356 -18.9869 255 255 255
-25.5958 -33.2295 78.4659 255 255 255
-37.2626 -32.8857 82.1671 255 255 255
26.4987 -5.86649 -15.3777 255 255 255
45.1837 -5.67301 -18.5911 255 255 255
45.1864 -6.03918 -17.1336 255 255 255
34.7468 -6.29757 -15.5173 255 255 255
-19.3213 -6.84571 -1.74096 255 255 255
5.68718 -4.85864 -12.8209 255 255 255
20.052 -5.73443 -17.2631 255 255 255
44.538 -8.05065 -16.9913 255 255 255
-4.06805 -7.55046 -8.00063 255 255 255
-31.3869 -35.6437 78.66 255 255 255
-35.1808 -11.5507 7.09575 255 255 255
33.3428 -10.1237 -16.8153 255 255 255
-46.1045 -37.3291 84.1472 255 255 255
-45.5351 -37.2517 85.1823 255 255 255
-18.713 -10.2239 -0.60636 255 255 255
23.3715 -8.5675 -15.8078 255 255 255
-34.8639 -10.5099 7.56243 255 255 255
19.3915 -9.03795 -15.3644 255 255 255
-39.4926 -37.5174 82.6837 255 255 255
23.8928 -9.97197 -16.5799 255 255 255
30.8858 -11.0045 -16.9863 255 255 255
26.5426 -10.3995 -16.7436 255 255 255
-19.006 -10.1278 -2.44278 255 255 255
-3.97495 -11.2777 -7.15034 255 255 255
64.4164 -26.1884 21.6156 255 255 255
-20.3177 -11.5797 -1.45083 255 255 255
24.2211 -11.1681 -17.0616 255 255 255
-49.253 -38.8912 85.7698 255 255 255
27.1564 -10.9118 -16.3169 255 255 255
63.0897 -26.1642 19.4825 255 255 255
-30.6838 -14.5776 6.29981 255 255 255
-31.9093 -13.6122 6.16752 255 255 255
11.8945 -13.3708 -11.0344 255 255 255
38.0301 -13.6801 -15.3419 255 255 255
-26.3579 -14.0717 2.97677 255 255 255
-21.7544 -13.4092 0.944195 255 255 255
27.0393 -12.8572 -15.8333 255 255 255
62.5252 -25.8061 17.0938 255 255 255
35.5818 -14.6156 -15.1658 255 255 255
-24.6086 -15.8331 2.14711 255 255 255
33.1045 -14.2304 -15.3069 255 255 255
33.8275 -14.782 -15.2211 255 255 255
-13.2915 -14.751 -5.60392 255 255 255
-22.2544 -15.5516 0.502216 255 255 255
-14.8342 -14.5311 -5.08896 255 255 255
30.9096 -16.3854 -14.089 255 255 255
-13.2016 -18.1665 -3.37855 255 255 255
33.6277 -17.063 -14.7146 255 255 255
-32.2355 -18.9406 6.26603 255 255 255
-18.1132 -16.2449 -3.06002 255 255 255
19.9879 -16.7422 -17.1223 255 255 255
72.8607 -39.8163 41.4193 255 255 255
0.256461 -19.4179 -5.68389 255 255 255
29.4702 -17.888 -17.0725 255 255 255
22.4223 -18.3077 -17.4226 255 255 255
79.5479 -39.617 37.4569 255 255 255
4.50762 -19.4934 -7.26478 255 255 255
-1.29624 -20.3815 -4.77 255 255 255
-26.0468 -21.0935 3.89188 255 255 255
23.1471 -18.461 -17.2458 255 255 255
6.85757 -20.8637 -9.67869 255 255 255
-34.6638 -20.872 6.17256 255 255 255
-26.661 -21.9719 5.02869 255 255 255
31.7763 -22.4687 -16.0329 255 255 255
-17.7236 -20.9395 -5.45204 255 255 255
-9.43024 -23.3004 -0.265623 255 255 255
-9.28448 -22.5666 0.504841 255 255 255
3.55354 -22.8288 -6.17192 255 255 255
92.7316 -43.1511 39.256 255 255 255
-12.8539 -22.8032 -1.18121 255 255 255
-7.65485 -23.3036 -2.73298 255 255 255
-17.4972 -45.9609 76.1743 255 255 255
-36.0164 -23.8838 6.37609 255 255 255
45.1985 -23.8499 -18.1363 255 255 255
2.806 -67.4412 139.433 255 255 255
-18.5796 -23.8995 -3.56138 255 255 255
70.3238 -46.2824 49.077 255 255 255
-23.3141 -26.2162 1.08464 255 255 255
46.2566 -26.5022 -15.8468 255 255 255
15.8659 -24.7626 -14.3203 255 255 255
44.7304 -24.8297 -18.5509 255 255 255
83.6437 -46.0854 39.7917 255 255 255
-0.427529 -68.5499 140.375 255 255 255
-3.07577 -68.8078 140.77 255 255 255
34.6965 -26.5522 -16.1775 255 255 255
-19.6674 -48.905 75.492 255 255 255
18.6827 -24.0102 -17.6859 255 255 255
18.0014 -25.2094 -18.0642 255 255 255
66.2936 -47.4163 49.7654 255 255 255
24.2788 -26.4403 -17.8768 255 255 255
44.7223 -26.4205 -16.2442 255 255 255
45.8436 -28.0998 -15.5245 255 255 255
21.9672 -25.1367 -18.3875 255 255 255
32.2307 -27.0001 -16.4056 255 255 255
33.6621 -28.4458 -16.0646 255 255 255
35.1803 -27.8159 -15.4702 255 255 255
35.4812 -28.0154 -16.2041 255 255 255
35.8606 -28.3295 -16.1908 255 255 255
34.1396 -28.13 -15.6078 255 255 255
37.1223 -28.764 -16.1793 255 255 255
36.7487 -27.389 -16.5314 255 255 255
74.7051 -49.4497 48.2114 255 255 255
2.73795 -69.7062 136.926 255 255 255
-18.7873 -28.6076 -1.70138 255 255 255
-12.1583 -29.2705 -1.51991 255 255 255
18.502 -27.1069 -17.9826 255 255 255
47.1766 -29.5091 -16.0435 255 255 255
44.0701 -28.4872 -19.103 255 255 255
64.6345 -47.6328 42.3127 255 255 255
4.37775 -69.9631 138.403 255 255 255
-9.24034 -30.42 -2.48579 255 255 255
17.1844 -28.085 -18.7456 255 255 255
-15.777 -30.8277 -0.350012 255 255 255
15.7903 -29.9328 -12.0772 255 255 255
20.5244 -28.4664 -17.8124 255 255 255
-10.8806 -30.615 -1.40052 255 255 255
34.7934 -30.6735 -15.3881 255 255 255
40.1227 -30.4007 -21.3109 255 255 255
21.3008 -28.5067 -16.6107 255 255 255
25.8754 -29.8781 -18.1727 255 255 255
-7.61194 -31.6252 -3.29313 255 255 255
15.0977 -31.1696 -9.54093 255 255 255
16.3586 -30.7827 -13.0256 255 255 255
-2.43219 -71.3653 140.459 255 255 255
1.9187 -71.2284 137.912 255 255 255
12.4884 -30.9585 -12.461 255 255 255
12.9179 -30.8923 -11.8011 255 255 255
-5.12428 -72.7565 143.186 255 255 255
1.27402 -69.8362 132.252 255 255 255
20.1519 -30.43 -14.6073 255 255 255
-7.67802 -71.9428 141.229 255 255 255
45.9253 -33.8267 -15.214 255 255 255
-18.1635 -53.6644 74.0317 255 255 255
-33.2161 -33.8947 7.27472 255 255 255
73.864 -52.2225 45.2169 255 255 255
16.1163 -32.4582 -11.1197 255 255 255
98.1011 -51.0679 37.0554 255 255 255
-0.1029 -72.7434 139.914 255 255 255
73.9163 -51.07 42.5548 255 255 255
-16.3775 -33.4897 -0.974669 255 255 255
-8.14989 -32.6 -2.99503 255 255 255
41.0406 -32.4804 -19.2373 255 255 255
0.920913 -73.427 138.187 255 255 255
-8.53125 -33.7105 -1.76759 255 255 255
-4.26522 -72.5324 139.644 255 255 255
15.7426 -33.5751 -10.0982 255 255 255
15.7575 -34.1477 -10.1325 255 255 255
-24.992 -35.0979 5.28579 255 255 255
-14.9389 -34.2429 -2.01042 255 255 255
-2.63472 -33.7677 -6.15457 255 255 255
37.8894 -34.3327 -15.5928 255 255 255
36.9425 -34.1688 -15.1192 255 255 255
-2.93789 -73.3502 139.554 255 255 255
3.35149 -71.9685 136.164 255 255 255
1.80374 -34.5094 -7.01417 255 255 255
12.2615 -34.2932 -11.3229 255 255 255
12.8656 -34.3296 -10.8182 255 255 255
-32.4497 -35.5165 7.20567 255 255 255
36.8021 -34.3513 -15.5269 255 255 255
16.8579 -33.3571 -11.4835 255 255 255
21.7167 -32.6477 -16.157 255 255 255
-26.0709 -36.038 6.21262 255 255 255
-27.4665 -36.0294 7.21391 255 255 255
15.6068 -34.3056 -12.9681 255 255 255
-0.491578 -75.3503 139.787 255 255 255
-0.557313 -73.6413 138.979 255 255 255
-0.550497 -73.6583 138.742 255 255 255
-29.4743 -42.61 26.546 255 255 255
31.4759 -35.7905 -14.8163 255 255 255
11.8585 -34.7177 -11.6504 255 255 255
26.5747 -34.6876 -16.2033 255 255 255
26.88 -34.6797 -16.5607 255 255 255
-1.50837 -74.1674 139.479 255 255 255
-16.6354 -36.0137 -3.75825 255 255 255
-27.0592 -37.9506 5.30461 255 255 255
28.486 -34.4581 -16.8817 255 255 255
-25.6638 -37.0055 1.55095 255 255 255
-24.518 -36.4794 1.52109 255 255 255
2.29643 -36.7403 -9.79134 255 255 255
9.01183 -35.367 -12.6147 255 255 255
11.2867 -36.482 -13.5308 255 255 255
20.7633 -35.7624 -16.2815 255 255 255
-25.0136 -37.85 1.09858 255 255 255
-24.2277 -38.3427 2.76312 255 255 255
-16.9968 -37.9679 -2.78217 255 255 255
38.1208 -37.007 -17.4467 255 255 255
0.738811 -36.792 -10.203 255 255 255
11.2471 -36.3574 -13.631 255 255 255
69.5047 -54.6175 44.439 255 255 255
3.30763 -74.2844 137.167 255 255 255
26.3953 -35.9904 -17.9044 255 255 255
27.6112 -36.3146 -17.389 255 255 255
-1.90536 -74.6399 139.57 255 255 255
31.3634 -37.6929 -17.0569 255 255 255
-18.9115 -58.2939 75.0201 255 255 255
17.4933 -38.3691 -15.1103 255 255 255
38.0442 -37.622 -18.8555 255 255 255
-26.715 -57.5503 75.9292 255 255 255
2.17731 -75.9578 136.541 255 255 255
-22.5981 -38.7069 -1.04383 255 255 255
70.0852 -55.1635 45.0929 255 255 255
5.23328 -39.1895 -11.7018 255 255 255
-2.02638 -75.9979 139.222 255 255 255
-20.3403 -39.545 -2.52104 255 255 255
37.9947 -38.5424 -20.5742 255 255 255
0.89868 -76.2792 137.514 255 255 255
26.4131 -39.998 -16.971 255 255 255
-9.14515 -40.1459 -5.4686 255 255 255
-25.689 -41.679 2.5577 255 255 255
-22.4107 -53.716 48.8969 255 255 255
82.2529 -57.1903 39.1748 255 255 255
-36.3771 -42.7178 5.52053 255 255 255
72.115 -59.0639 46.7592 255 255 255
-23.6606 -52.6324 46.2443 255 255 255
33.2137 -41.5238 -18.6332 255 255 255
36.7973 -41.1736 -18.5181 255 255 255
71.849 -60.3166 46.9758 255 255 255
-5.89682 -76.8508 134.706 255 255 255
-3.12023 -77.8081 138.942 255 255 255
72.8498 -61.2055 47.4483 255 255 255
21.2934 -42.3853 -19.6366 255 255 255
-14.068 -61.3805 72.2023 255 255 255
29.4579 -43.9251 -18.2681 255 255 255
33.4318 -43.234 -16.3688 255 255 255
37.9848 -44.2513 -18.5594 255 255 255
-0.37764 -76.8953 132.473 255 255 255
32.4367 -43.455 -17.9439 255 255 255
34.5895 -44.3092 -16.9903 255 255 255
-33.8614 -46.1274 3.86514 255 255 255
86.1925 -60.219 36.4588 255 255 255
-32.9579 -45.7783 4.09539 255 255 255
-23.3165 -64.2902 77.5581 255 255 255
-24.2069 -54.9078 39.2994 255 255 255
-18.9144 -46.1128 -5.52044 255 255 255
27.916 -45.1966 -18.5317 255 255 255
81.6099 -60.9703 39.5849 255 255 255
-31.9434 -64.27 76.5911 255 255 255
32.9095 -47.7525 -18.7558 255 255 255
-24.6729 -48.7506 3.21323 255 255 255
-2.43836 -80.7887 137.816 255 255 255
-0.710922 -80.4129 137.565 255 255 255
-31.121 -50.6466 3.86482 255 255 255
-18.4524 -66.7744 71.5169 255 255 255
-26.6694 -58.3558 33.3768 255 255 255
-0.136444 -81.626 137.789 255 255 255
-33.6081 -51.6216 2.61207 255 255 255
-29.8322 -67.1491 77.0631 255 255 255
-6.27639 -82.4662 140.062 255 255 255
-24.9381 -51.2484 0.269471 255 255 255
61.6013 -65.3634 46.1925 255 255 255
83.227 -65.1198 38.7522 255 255 255
-15.8545 -68.2284 72.897 255 255 255
-16.4181 -67.84 72.5399 255 255 255
-2.16649 -81.9156 137.686 255 255 255
65.3027 -67.1803 49.5413 255 255 255
81.6735 -65.6192 37.7778 255 255 255
-24.7018 -52.3411 2.14547 255 255 255
-22.0836 -53.4476 -1.34645 255 255 255
24.888 -50.9243 -19.1577 255 255 255
61.935 -66.2306 41.6039 255 255 255
37.3719 -52.0548 -20.1485 255 255 255
61.7431 -66.5138 42.0787 255 255 255
-25.7825 -54.0596 0.724312 255 255 255
-22.7831 -63.7004 48.5868 255 255 255
36.1079 -52.425 -20.8116 255 255 255
-26.2672 -55.6117 4.43447 255 255 255
-6.03498 -84.3077 138.722 255 255 255
4.71111 96.9082 3.1715 255 255 255
3.51729 93.9221 4.18489 255 255 255
-163.149 221.183 -131.77 255 255 255
-174.545 203.552 -103.446 255 255 255
-7.91128 101.654 -6.30507 255 255 255
79.5339 46.1207 46.9631 255 255 255
-14.7741 100.82 -4.72096 255 255 255
2.0211 90.0461 6.20358 255 255 255
-168.344 220.615 -135.025 255 255 255
12.8537 99.27 -13.3202 255 255 255
-150.936 129.116 -10.1473 255 255 255
-0.129469 87.9933 4.76057 255 255 255
-173.827 198.64 -110.262 255 255 255
-149.958 124.353 -8.35363 255 255 255
-170.075 211.836 -136.261 255 255 255
-166.026 211.425 -136.64 255 255 255
46.4413 83.0742 -8.22963 255 255 255
7.9364 86.2711 -0.485992 255 255 255
7.41237 86.3025 -0.666673 255 255 255
-22.5951 91.796 -0.371785 255 255 255
22.5541 93.9213 -17.4372 255 255 255
68.8398 39.9921 48.1635 255 255 255
1.41554 82.0365 3.43458 255 255 255
-3.28878 81.1711 3.56556 255 255 255
-2.28884 80.5104 2.9972 255 255 255
-165.16 192.867 -122.883 255 255 255
65.031 41.5017 41.4453 255 255 255
21.6782 85.5093 -18.8663 255 255 255
-8.08279 75.366 5.77524 255 255 255
39.8085 84.4777 -24.7396 255 255 255
-53.8043 27.7532 93.2849 255 255 255
-50.0727 28.5849 91.8948 255 255 255
6.00115 73.9334 1.48833 255 255 255
-35.3097 29.0703 86.2345 255 255 255
10.9082 73.8281 -2.48037 255 255 255
-42.0925 27.8754 88.8672 255 255 255
-3.25948 72.6985 3.61317 255 255 255
-3.7895 74.4729 4.35602 255 255 255
-55.6088 26.8281 92.9299 255 255 255
35.8132 73.7464 -8.63186 255 255 255
-24.2651 28.0267 81.8507 255 255 255
-57.5444 27.2098 92.3037 255 255 255
-52.3332 27.9209 90.6172 255 255 255
4.43569 72.8157 -1.68324 255 255 255
-26.558 26.8353 82.7823 255 255 255
28.0393 81.8308 -22.6729 255 255 255
64.9713 32.5912 47.1673 255 255 255
70.5841 30.6064 48.3095 255 255 255
-28.0393 71.5027 11.0065 255 255 255
37.0063 73.8559 -12.775 255 255 255
-27.8072 72.7477 5.03025 255 255 255
37.3043 78.2876 -23.9444 255 255 255
22.039 73.906 -12.4622 255 255 255
37.6427 71.0864 -15.0124 255 255 255
34.4908 68.8841 -12.1169 255 255 255
15.8847 68.7932 -6.6547 255 255 255
-0.36081 68.4722 -0.136504 255 255 255
-34.021 68.1319 10.9501 255 255 255
-33.946 67.4617 9.48427 255 255 255
-22.1403 67.7042 7.45382 255 255 255
-1.55965 67.1734 2.28782 255 255 255
70.6821 26.8875 47.0841 255 255 255
3.51091 69.1446 -3.51507 255 255 255
-13.0973 65.5167 4.26824 255 255 255
17.8291 67.1646 -7.39375 255 255 255
-15.0202 64.796 6.33397 255 255 255
26.3587 67.6931 -10.0338 255 255 255
-20.7368 66.6013 4.56621 255 255 255
-12.3961 64.9812 5.15285 255 255 255
70.9072 23.9008 48.81 255 255 255
70.862 24.61 50.0092 255 255 255
22.5277 66.5405 -8.72583 255 255 255
16.3808 65.7047 -6.01584 255 255 255
9.16032 65.3364 -3.45884 255 255 255
13.7731 65.1112 -5.52172 255 255 255
65.2345 24.2724 47.3765 255 255 255
24.3665 66.0155 -12.4898 255 255 255
19.5192 62.8242 -7.06128 255 255 255
23.4493 63.486 -8.94752 255 255 255
-55.403 17.524 92.797 255 255 255
21.5591 63.9972 -8.76764 255 255 255
23.8939 63.5146 -10.5645 255 255 255
36.7873 62.1414 -12.1525 255 255 255
16.3491 60.7533 -6.51318 255 255 255
-54.3768 16.4052 92.5955 255 255 255
-45.4269 17.1285 90.7489 255 255 255
35.5478 58.531 -9.74186 255 255 255
35.763 59.0737 -10.394 255 255 255
-38.6355 15.9579 88.5689 255 255 255
29.01 60.6556 -11.4645 255 255 255
38.8816 60.6782 -16.1028 255 255 255
-8.4698 57.49 2.39253 255 255 255
-8.02723 58.1182 2.7437 255 255 255
34.9181 58.0634 -10.4565 255 255 255
38.8776 59.8595 -16.9381 255 255 255
-45.8582 15.0058 88.3734 255 255 255
-23.4044 57.9314 5.57705 255 255 255
-19.1211 58.4019 4.24385 255 255 255
-19.6641 56.9564 2.117 255 255 255
-50.525 15.0626 90.7695 255 255 255
32.4956 58.4451 -11.2861 255 255 255
-9.9177 55.7176 3.38944 255 255 255
-12.204 54.9667 4.1192 255 255 255
-11.4843 15.8738 74.6151 255 255 255
35.0706 54.0444 -9.67889 255 255 255
12.6536 56.0183 -7.47843 255 255 255
60.0023 30.8241 25.382 255 255 255
37.0117 56.6114 -15.7849 255 255 255
66.0743 18.7721 43.7222 255 255 255
66.4542 16.5471 46.6568 255 255 255
40.6089 55.2213 -20.4836 255 255 255
-44.6391 11.4371 88.6293 255 255 255
-20.3867 49.4272 7.2105 255 255 255
-3.56798 52.4565 -4.14289 255 255 255
-2.91337 53.4077 -4.52249 255 255 255
-57.6009 8.96215 92.4219 255 255 255
27.8686 51.4592 -12.4436 255 255 255
6.34875 51.9271 -5.52537 255 255 255
6.5597 51.8235 -5.33384 255 255 255
-40.9871 9.15222 87.6564 255 255 255
44.1153 49.3358 -14.7382 255 255 255
-40.2301 8.00497 86.0722 255 255 255
11.5586 49.2156 -7.14225 255 255 255
-7.8013 47.3763 -0.177012 255 255 255
-9.3009 46.5742 1.07201 255 255 255
11.8536 48.4185 -7.77618 255 255 255
9.64599 46.655 -6.53024 255 255 255
-23.8398 6.02834 81.0986 255 255 255
-38.186 45.8573 8.88862 255 255 255
-37.5671 45.7253 9.22855 255 255 255
12.6949 47.9296 -8.732 255 255 255
-11.1031 4.91175 80.3537 255 255 255
48.5567 43.5369 -12.3284 255 255 255
-19.4737 45.452 5.39651 255 255 255
-0.493327 45.6907 -3.11331 255 255 255
7.41377 46.2058 -5.87592 255 255 255
66.915 9.29822 47.4655 255 255 255
21.7805 44.1206 -9.0905 255 255 255
-11.9953 43.6579 1.93851 255 255 255
98.2636 8.12483 36.5217 255 255 255
-29.5367 41.1183 10.8729 255 255 255
36.7029 41.2458 -12.2611 255 255 255
40.8688 42.5425 -14.8316 255 255 255
-5.01023 41.8952 -1.324 255 255 255
41.1195 42.3644 -15.9198 255 255 255
-31.3536 3.44073 83.5681 255 255 255
-16.0272 39.4998 3.02086 255 255 255
33.9219 39.7401 -10.0497 255 255 255
40.9735 40.8898 -16.2341 255 255 255
-16.2852 39.2271 3.23891 255 255 255
-17.1274 38.4735 3.36941 255 255 255
-17.1917 39.1256 3.77777 255 255 255
22.9573 40.0517 -10.2636 255 255 255
21.8578 39.9817 -10.4644 255 255 255
37.133 38.4437 -11.5896 255 255 255
-32.6041 0.216336 83.7164 255 255 255
39.4839 38.1045 -12.3129 255 255 255
51.3781 30.116 0.848557 255 255 255
-25.2226 35.5495 10.7545 255 255 255
-28.7391 34.6625 10.9382 255 255 255
-28.0638 34.9795 11.3112 255 255 255
-26.5127 35.5679 9.50201 255 255 255
-27.2967 35.4196 9.59509 255 255 255
-54.7023 -1.08333 90.7998 255 255 255
34.0017 36.1852 -11.0338 255 255 255
-14.3926 37.6704 1.78084 255 255 255
30.2693 37.5631 -12.4176 255 255 255
23.4629 37.192 -9.9528 255 255 255
34.0324 36.2077 -11.1376 255 255 255
43.7425 35.1807 -15.3756 255 255 255
45.1536 36.5985 -15.8162 255 255 255
-19.52 34.8804 4.52283 255 255 255
56.8511 16.1188 19.7276 255 255 255
67.7925 0.781268 46.6704 255 255 255
-10.1505 34.5631 -1.73251 255 255 255
-8.3578 34.2652 -0.817426 255 255 255
-23.4805 -3.27491 80.1499 255 255 255
-20.7895 -3.24689 79.9694 255 255 255
92.8281 3.7738 31.8808 255 255 255
100.486 0.373369 35.2753 255 255 255
-13.2287 33.5613 1.33925 255 255 255
-56.3147 -4.00827 91.5021 255 255 255
-11.829 33.8399 0.140846 255 255 255
-11.5768 33.1316 -0.343671 255 255 255
103.693 0.319572 32.6825 255 255 255
66.9361 0.68738 45.0761 255 255 255
-30.8515 -5.03238 82.5178 255 255 255
-33.9539 28.8577 11.3946 255 255 255
102.263 0.781333 31.4772 255 255 255
31.9632 30.2267 -11.6469 255 255 255
41.1868 30.0609 -14.2795 255 255 255
40.0205 30.4287 -14.8965 255 255 255
-10.3599 30.5212 -3.39079 255 255 255
-25.4695 -5.49973 80.7474 255 255 255
79.0523 -1.10061 38.6428 255 255 255
16.3981 29.9515 -10.7663 255 255 255
67.453 -2.9145 44.0833 255 255 255
54.4043 13.5409 11.6405 255 255 255
-3.01052 30.0461 -7.5662 255 255 255
10.678 30.2746 -11.8106 255 255 255
64.6066 -0.57693 38.1825 255 255 255
-8.92714 28.8513 -5.19477 255 255 255
-9.32549 29.3293 -5.32966 255 255 255
-53.1255 -9.85073 91.0729 255 255 255
-17.3579 24.5874 1.2052 255 255 255
94.3493 -2.16424 31.3444 255 255 255
-19.195 -9.79817 78.7763 255 255 255
-54.6873 -11.0274 89.4273 255 255 255
43.0565 26.5956 -20.208 255 255 255
-13.2738 27.2895 -3.78272 255 255 255
48.564 19.3219 -6.08116 255 255 255
35.4532 21.7285 -11.7872 255 255 255
49.2305 16.4362 -6.67028 255 255 255
34.0964 20.3322 -11.973 255 255 255
-52.1985 -12.8373 89.6146 255 255 255
32.3894 21.5934 -11.5777 255 255 255
-23.0505 18.9925 6.99757 255 255 255
45.2324 19.6852 -16.0306 255 255 255
7.84675 21.412 -12.1285 255 255 255
39.7032 18.2831 -13.6488 255 255 255
39.9575 18.787 -14.2481 255 255 255
56.5461 5.03048 14.1618 255 255 255
-24.1889 17.2169 7.51871 255 255 255
-4.72973 21.2297 -8.18527 255 255 255
-51.6398 -16.0205 89.0777 255 255 255
-34.6478 17.5239 9.6894 255 255 255
44.8709 16.5203 -16.2493 255 255 255
59.379 1.93275 17.3897 255 255 255
6.20494 19.9699 -10.9776 255 255 255
25.9461 18.2984 -14.4592 255 255 255
25.4725 18.1773 -13.454 255 255 255
61.8248 1.30955 15.2941 255 255 255
-52.1972 -17.0858 88.8816 255 255 255
26.1107 18.133 -15.128 255 255 255
61.1646 0.92027 14.1099 255 255 255
62.3285 -0.705659 14.5807 255 255 255
57.1338 -0.0769372 14.7 255 255 255
-18.2173 -16.7571 76.1756 255 255 255
-27.2209 11.3887 9.83531 255 255 255
60.3887 -0.487942 15.5526 255 255 255
60.8585 -0.233305 14.6114 255 255 255
58.1095 -0.592111 15.5249 255 255 255
17.6287 16.3569 -13.631 255 255 255
61.2606 -1.58955 15.4897 255 255 255
60.4319 -1.93163 14.8488 255 255 255
59.6487 -1.59448 14.4664 255 255 255
23.0966 14.3795 -15.574 255 255 255
22.0567 14.0856 -15.9374 255 255 255
-21.3051 11.633 2.53668 255 255 255
-19.4234 10.8648 1.39589 255 255 255
-30.8466 7.06381 11.6402 255 255 255
-31.4942 7.97793 10.285 255 255 255
-43.8061 -22.4367 85.8264 255 255 255
-44.3488 -20.535 86.1886 255 255 255
21.2236 11.5838 -14.2407 255 255 255
33.9802 8.85957 -12.2645 255 255 255
2.95795 11.995 -13.1025 255 255 255
-52.0482 -21.9428 87.813 255 255 255
27.5459 8.9175 -13.9205 255 255 255
28.1868 9.57731 -13.1777 255 255 255
-32.6542 -22.465 82.1371 255 255 255
-24.8177 6.15923 8.43261 255 255 255
-24.3474 6.45563 8.65551 255 255 255
33.3359 7.89959 -12.7045 255 255 255
22.5981 8.83234 -12.5099 255 255 255
41.1953 7.74217 -17.7388 255 255 255
-23.8396 -23.5068 77.1355 255 255 255
-14.1016 -21.6785 74.7402 255 255 255
47.4218 3.3194 -9.18616 255 255 255
6.12703 9.6549 -9.68986 255 255 255
6.54594 7.47517 -9.84314 255 255 255
-13.7137 -24.7162 75.3466 255 255 255
47.5674 3.62891 -9.27722 255 255 255
-42.2027 -25.5033 84.6119 255 255 255
-14.0921 -24.5478 76.0254 255 255 255
-38.2185 -24.8101 84.0818 255 255 255
-14.5704 -24.3665 75.591 255 255 255
-19.0548 6.08655 0.837566 255 255 255
9.4143 9.23632 -16.7922 255 255 255
-51.9463 -27.0862 87.3915 255 255 255
5.32737 6.92123 -12.1454 255 255 255
-14.9504 6.4235 -7.67689 255 255 255
-13.2695 6.6687 -6.78593 255 255 255
1.0013 7.2452 -13.9674 255 255 255
-43.8517 -25.7921 85.4778 255 255 255
-13.3285 5.25082 -8.50655 255 255 255
53.5274 -1.00876 -11.5103 255 255 255
-11.0184 6.21377 -12.8783 255 255 255
34.1092 2.00606 -13.1127 255 255 255
-51.1026 -27.4505 87.8997 255 255 255
26.2838 3.9384 -15.3409 255 255 255
51.7791 -1.23585 -12.5329 255 255 255
8.02997 4.75236 -15.3361 255 255 255
-15.5605 3.75717 -8.67386 255 255 255
47.1729 0.464549 -13.508 255 255 255
10.3822 3.78741 -18.1859 255 255 255
-27.2978 -28.4598 80.2213 255 255 255
-4.43235 4.03367 -11.9536 255 255 255
-52.7584 -28.9515 88.8779 255 255 255
-23.575 -0.619486 3.36749 255 255 255
8.84568 3.61129 -15.95 255 255 255
-45.4056 -29.0385 86.0031 255 255 255
-33.4616 -30.5556 81.7846 255 255 255
-26.0658 -2.68541 7.38115 255 255 255
43.1153 0.13615 -18.472 255 255 255
46.8808 -3.5779 -13.8189 255 255 255
-25.8746 -29.6298 79.45 255 255 255
44.4257 -1.55674 -18.1802 255 255 255
45.372 -2.58315 -16.2983 255 255 255
-30.9027 -11.8272 27.5454 255 255 255
30.8153 -1.30432 -15.5458 255 255 255
-50.7416 -31.5308 86.4179 255 255 255
-46.2358 -31.2943 85.9056 255 255 255
-37.8295 -31.7692 83.5185 255 255 255
-32.8796 -4.71762 6.86069 255 255 255
-45.9264 -33.4118 84.6158 255 255 255
-49.2583 -31.7456 85.9825 255 255 255
-14.6921 -1.7726 -8.43051 255 255 255
-12.743 -1.49161 -9.73421 255 255 255
-45.2399 -33.3053 84.9349 255 255 255
-7.71546 -3.29923 -10.9816 255 255 255
43.0042 -6.51881 -18.7198 255 255 255
-0.335975 -4.08191 -13.1445 255 255 255
38.4905 -6.19092 -18.3203 255 255 255
-11.8365 -6.12092 -11.3218 255 255 255
-13.1845 -4.67452 -8.60261 255 255 255
9.23487 -4.57937 -15.5572 255 255 255
13.444 -5.18711 -18.7416 255 255 255
13.6098 -4.34799 -19.057 255 255 255
-5.29855 -6.79658 -8.72315 255 255 255
4.9444 -6.37911 -13.1158 255 255 255
6.77591 -7.09128 -11.5289 255 255 255
21.8526 -7.19427 -16.5932 255 255 255
43.7857 -9.43233 -17.9607 255 255 255
-31.7381 -11.2907 5.95638 255 255 255
34.1838 -10.3015 -16.062 255 255 255
11.9421 -12.3549 -13.4948 255 255 255
-11.6661 -13.6601 -2.19855 255 255 255
-1.08548 -15.1824 -3.35537 255 255 255
-17.5517 -35.4978 60.7683 255 255 255
-17.7531 -35.1732 62.5631 255 255 255
-17.6435 -15.4704 -4.0416 255 255 255
37.1035 -17.0194 -16.2515 255 255 255
-27.5959 -19.0305 5.87349 255 255 255
33.7491 -18.9597 -15.4282 255 255 255
-7.59618 -20.1115 -3.40414 255 255 255
-2.29215 -19.3719 -5.40395 255 255 255
16.1655 -18.702 -17.4795 255 255 255
44.9558 -21.0956 -15.5574 255 255 255
36.8294 -21.7293 -15.0062 255 255 255
36.4463 -21.8846 -15.5615 255 255 255
-3.83939 -67.0802 143.172 255 255 255
13.217 -20.8958 -10.0821 255 255 255
-22.4008 -37.2399 49.0982 255 255 255
43.1134 -21.8199 -18.276 255 255 255
3.13661 -22.9114 -6.52073 255 255 255
20.5519 -22.8938 -18.0584 255 255 255
71.2534 -45.5081 44.795 255 255 255
2.7874 -68.2257 137.014 255 255 255
-37.5237 -26.5332 7.56005 255 255 255
37.4692 -24.9971 -16.1532 255 255 255
37.5956 -23.8659 -19.3103 255 255 255
31.419 -25.1706 -17.1866 255 255 255
40.0837 -24.9662 -19.9191 255 255 255
68.4312 -47.4086 48.4326 255 255 255
-26.5753 -28.4533 4.00686 255 255 255
72.9526 -47.7468 47.4149 255 255 255
39.4523 -25.9169 -21.0241 255 255 255
71.8854 -48.4803 47.8654 255 255 255
-34.8185 -29.2403 4.90631 255 255 255
73.7166 -48.3631 46.7331 255 255 255
72.8349 -47.8131 46.7291 255 255 255
20.3415 -28.0699 -17.3981 255 255 255
-14.7628 -51.3654 72.6396 255 255 255
2.86963 -69.9484 138.266 255 255 255
96.5575 -48.2431 34.4387 255 255 255
-15.5062 -29.6831 0.250132 255 255 255
2.67872 -69.7549 136.122 255 255 255
31.7271 -28.8377 -16.7988 255 255 255
-14.9847 -30.1212 -0.168057 255 255 255
68.0966 -49.4987 46.0507 255 255 255
24.0302 -29.4074 -17.779 255 255 255
-2.76102 -71.0741 139.437 255 255 255
22.9728 -29.8284 -17.499 255 255 255
-9.89735 -31.0973 -2.72718 255 255 255
9.86364 -30.7416 -13.5803 255 255 255
17.3764 -29.8054 -18.1783 255 255 255
62.6617 -49.4473 43.4057 255 255 255
-10.8914 -32.1638 -2.22525 255 255 255
-11.3792 -32.4675 -0.915335 255 255 255
1.25797 -32.8588 -6.17359 255 255 255
-16.5707 -48.7473 61.3866 255 255 255
-2.49408 -31.9007 -7.40397 255 255 255
5.5574 -31.3054 -10.2303 255 255 255
5.07138 -32.016 -9.78414 255 255 255
-25.0257 -53.4178 76.448 255 255 255
-23.5487 -34.2131 5.72307 255 255 255
-23.9903 -33.4269 5.51526 255 255 255
-1.59107 -71.7216 139.052 255 255 255
28.994 -33.2835 -15.785 255 255 255
-31.26 -35.3639 6.39778 255 255 255
-22.3983 -54.5621 76.1022 255 255 255
-6.79675 -33.0536 -5.72097 255 255 255
-34.2182 -34.0359 6.3395 255 255 255
5.69468 -33.2704 -9.52975 255 255 255
6.32605 -33.567 -10.5533 255 255 255
38.9841 -34.2393 -16.617 255 255 255
0.108064 -72.269 135.427 255 255 255
1.06893 -71.2657 132.369 255 255 255
3.58804 -35.2752 -7.84794 255 255 255
72.768 -52.66 45.637 255 255 255
-21.156 -35.1805 -0.544668 255 255 255
-20.9405 -35.1778 -0.317224 255 255 255
-6.78223 -33.6374 -5.66828 255 255 255
-21.4867 -54.1909 75.2768 255 255 255
-18.4143 -35.0345 -2.66706 255 255 255
-4.54288 -35.1331 -5.5588 255 255 255
4.87574 -34.3284 -9.80103 255 255 255
17.7805 -34.3029 -14.1394 255 255 255
33.4106 -34.6836 -15.0209 255 255 255
35.9997 -35.2352 -14.9732 255 255 255
21.8743 -34.6509 -16.1979 255 255 255
21.6639 -34.372 -16.2689 255 255 255
44.9484 -34.6103 -18.948 255 255 255
19.5944 -32.7914 -14.6314 255 255 255
19.8608 -33.3065 -15.2916 255 255 255
-11.096 -35.7165 -2.87308 255 255 255
42.2296 -34.267 -21.5731 255 255 255
28.9488 -34.287 -15.2647 255 255 255
28.1997 -34.3159 -16.7017 255 255 255
8.72685 -35.3707 -10.1317 255 255 255
21.6223 -34.4899 -15.7721 255 255 255
88.0216 -53.1044 38.1266 255 255 255
62.578 -52.3602 40.6602 255 255 255
68.7292 -54.8363 46.5891 255 255 255
0.385411 -74.6432 139.147 255 255 255
-29.2041 -39.0219 6.09942 255 255 255
21.8749 -36.3186 -17.1404 255 255 255
30.5219 -37.0313 -17.9027 255 255 255
47.9644 -40.5806 -9.18212 255 255 255
-22.618 -57.3767 74.2442 255 255 255
-2.48059 -76.2146 138.91 255 255 255
-20.2745 -39.5409 -2.54591 255 255 255
30.5758 -38.7585 -18.7983 255 255 255
28.8527 -38.8372 -16.9381 255 255 255
28.581 -37.8203 -17.0754 255 255 255
23.9181 -38.4181 -18.3006 255 255 255
23.0581 -38.4711 -19.0597 255 255 255
69.9365 -57.3717 48.6738 255 255 255
-4.61043 -75.2548 140.32 255 255 255
-20.472 -52.9063 52.8767 255 255 255
70.9703 -57.9154 47.1109 255 255 255
-27.9655 -59.5191 76.7927 255 255 255
-5.98793 -76.8391 140.336 255 255 255
0.824218 -77.0289 136.38 255 255 255
88.1397 -57.8873 39.6768 255 255 255
86.7681 -58.3388 40.34 255 255 255
31.9022 -42.5319 -17.8282 255 255 255
-29.0253 -61.4317 78.8334 255 255 255
-18.4544 -41.8935 -6.37648 255 255 255
85.3413 -59.568 38.0457 255 255 255
-13.5736 -61.4698 72.5584 255 255 255
-28.767 -61.5913 77.4034 255 255 255
23.1966 -42.1098 -18.7067 255 255 255
-23.4413 -44.8675 -1.69079 255 255 255
60.6909 -59.8619 41.9753 255 255 255
-29.1904 -47.0963 3.82553 255 255 255
35.7282 -45.283 -18.4385 255 255 255
34.8498 -44.8788 -17.8577 255 255 255
28.4984 -44.972 -18.0752 255 255 255
63.0926 -63.2316 47.5864 255 255 255
-0.879552 -79.9184 137.098 255 255 255
-7.96084 -79.9145 139.253 255 255 255
-25.0693 -47.5484 0.641628 255 255 255
-26.4772 -54.8181 36.3297 255 255 255
-26.8824 -55.2666 35.5559 255 255 255
-19.6202 -64.136 74.4969 255 255 255
-17.9097 -65.2323 73.5803 255 255 255
-6.61857 -80.4978 139.207 255 255 255
-21.9601 -65.6079 74.1674 255 255 255
63.0664 -63.7083 44.0338 255 255 255
62.1866 -63.6591 45.1486 255 255 255
61.6628 -62.9896 43.7378 255 255 255
-28.1079 -50.0149 2.32439 255 255 255
29.3592 -48.1823 -18.2856 255 255 255
29.7836 -50.3701 -18.2475 255 255 255
