ply
format ascii 1.0
element vertex 1249
property float x
property float y
property float z
property uchar red
property uchar green
property uchar blue
end_header
11.7639 -35.6957 -12.8812 255 255 255
12.6056 -35.6274 -13.3752 255 255 255
10.317 -35.8217 -12.3871 255 255 255
-6.72346 -36.0586 -6.55963 255 255 255
-6.0741 -36.1089 -6.65103 255 255 255
11.8902 -35.8865 -13.2153 255 255 255
-7.496 -36.292 -6.17264 255 255 255
-7.86319 -36.3298 -6.18328 255 255 255
16.4133 -36.0877 -15.2854 255 255 255
25.7872 0.777182 -15.5019 255 255 255
-17.537 1.5255 -3.85932 255 255 255
-20.9635 -0.175868 0.606334 255 255 255
-17.723 0.317337 -1.99515 255 255 255
-22.576 -1.29744 2.73957 255 255 255
-22.518 -1.76433 2.6316 255 255 255
-8.78912 1.78017 -10.5801 255 255 255
-17.3358 -1.24749 -0.630851 255 255 255
-22.556 -2.13386 2.40147 255 255 255
-22.824 -2.72838 3.26452 255 255 255
25.4628 -1.13061 -16.1797 255 255 255
-21.6599 -1.95887 0.571273 255 255 255
26.2785 -1.64521 -16.4896 255 255 255
-22.3815 -3.09384 2.53049 255 255 255
-21.5006 -2.43002 0.382098 255 255 255
-22.5005 -3.35735 2.45361 255 255 255
-22.9309 -3.64144 3.19215 255 255 255
26.0687 -2.3367 -16.4096 255 255 255
-22.0706 -3.0844 0.572418 255 255 255
25.9795 -2.50758 -16.4314 255 255 255
-22.8157 -2.23369 -1.647 255 255 255
-20.4589 -3.52617 -0.0985497 255 255 255
-21.9076 -3.71334 0.549249 255 255 255
-21.94 -5.9511 5.63688 255 255 255
19.6323 -2.36154 -17.3391 255 255 255
-21.9599 -4.67466 0.925454 255 255 255
-21.5465 -4.88688 0.774507 255 255 255
25.5742 -4.24473 -15.9588 255 255 255
-21.6074 -5.417 1.01076 255 255 255
3.76127 -2.12557 -15.3009 255 255 255
3.77439 -2.14627 -15.2647 255 255 255
-20.9245 -5.25702 0.0597178 255 255 255
3.70145 -2.22613 -15.3796 255 255 255
-17.581 -4.07462 -4.20404 255 255 255
-23.0084 -6.26415 2.88039 255 255 255
9.51416 -3.3059 -16.1682 255 255 255
-20.1918 -5.84734 -0.497197 255 255 255
26.5666 -5.51708 -16.7683 255 255 255
26.184 -5.72431 -16.7355 255 255 255
-22.0904 -8.49761 4.80166 255 255 255
-5.6558 -5.3648 -8.48745 255 255 255
25.4841 -6.38194 -16.4164 255 255 255
-4.67941 -5.73602 -8.64995 255 255 255
-21.7089 -7.12438 -0.0310295 255 255 255
25.7637 -5.99225 -18.2045 255 255 255
25.0608 -6.00424 -18.4408 255 255 255
25.4483 -6.59608 -16.8973 255 255 255
-22.8815 -8.56352 3.00548 255 255 255
25.1208 -6.98113 -16.3483 255 255 255
-5.0914 -6.18491 -8.56422 255 255 255
-22.5295 -8.74229 2.13352 255 255 255
7.46485 -6.44794 -13.3331 255 255 255
19.2621 -7.12497 -15.9784 255 255 255
21.253 -7.13405 -16.6491 255 255 255
21.0404 -6.68947 -17.8947 255 255 255
23.9897 -7.76419 -16.4032 255 255 255
19.2907 -6.8293 -17.4001 255 255 255
19.1966 -7.0101 -17.3367 255 255 255
19.1926 -7.00015 -17.3535 255 255 255
-23.1456 -9.58749 2.41516 255 255 255
19.6099 -7.16381 -17.4335 255 255 255
23.8999 -8.23359 -16.2172 255 255 255
-18.5153 -8.29109 -2.8482 255 255 255
25.543 -8.61901 -16.131 255 255 255
21.0557 -7.32819 -18.3966 255 255 255
25.3311 -8.75748 -16.2257 255 255 255
23.7781 -8.84387 -16.0184 255 255 255
-22.0487 -9.70581 0.325582 255 255 255
26.4563 -9.51084 -16.9171 255 255 255
25.0389 -9.58294 -16.404 255 255 255
-21.1939 -10.4997 0.295352 255 255 255
-20.2244 -10.198 -0.824337 255 255 255
-22.3835 -10.3549 0.0984905 255 255 255
26.4926 -9.76263 -16.9212 255 255 255
-18.2568 -9.84477 -2.78691 255 255 255
10.3966 -10.2496 -10.7201 255 255 255
23.3562 -9.52137 -16.9327 255 255 255
-13.643 -10.3095 -3.1079 255 255 255
24.0327 -9.88078 -16.4182 255 255 255
-21.5242 -10.9627 0.398358 255 255 255
-22.7465 -10.9407 0.472572 255 255 255
24.0273 -10.096 -16.4757 255 255 255
26.7893 -10.3289 -17.135 255 255 255
-20.3161 -11.1013 -0.701814 255 255 255
-23.1911 -12.0918 2.4684 255 255 255
-22.4087 -11.414 0.182508 255 255 255
-14.2247 -11.0233 -3.34425 255 255 255
20.1178 -10.5423 -15.5033 255 255 255
-21.2578 -11.6168 -0.555808 255 255 255
5.87181 -12.8954 -5.42852 255 255 255
-18.718 -11.1241 -3.00894 255 255 255
-6.25302 -11.2112 -6.81045 255 255 255
9.341 -12.8832 -7.35435 255 255 255
20.1546 -11.0403 -16.2076 255 255 255
26.0834 -11.4272 -17.1073 255 255 255
25.9994 -11.5424 -16.9077 255 255 255
25.3511 -11.2118 -17.8124 255 255 255
6.31007 -13.0517 -6.46996 255 255 255
-23.1123 -12.8338 1.84503 255 255 255
24.515 -11.8967 -16.3864 255 255 255
24.5185 -11.9156 -16.3614 255 255 255
1.05745 -12.4862 -7.2675 255 255 255
-20.2822 -12.4694 -0.989131 255 255 255
10.8425 -13.308 -8.24003 255 255 255
-21.3753 -12.6741 -0.316739 255 255 255
-20.2828 -12.708 -1.01256 255 255 255
24.3723 -12.1413 -16.5321 255 255 255
10.0687 -13.5535 -8.23639 255 255 255
25.4088 -12.2689 -16.8849 255 255 255
-20.2259 -13.0847 -0.916475 255 255 255
6.96593 -13.6782 -7.60378 255 255 255
-21.8082 -13.8294 1.23647 255 255 255
0.748795 -14.5276 -3.79407 255 255 255
-1.12267 -14.5343 -3.41983 255 255 255
25.4373 -12.7787 -16.9708 255 255 255
-23.0561 -14.2138 2.16463 255 255 255
12.1423 -14.1779 -9.01555 255 255 255
19.1804 -12.0817 -17.3617 255 255 255
1.13603 -14.7462 -4.15278 255 255 255
-9.68731 -14.6307 -1.15979 255 255 255
-17.2669 -12.674 -4.45798 255 255 255
18.7799 -12.1772 -17.2958 255 255 255
-22.6823 -14.4914 1.77908 255 255 255
-18.7318 -13.1711 -3.19507 255 255 255
9.24296 -14.2145 -8.75428 255 255 255
-17.0558 -12.9468 -4.47927 255 255 255
1.24178 -14.8034 -4.89708 255 255 255
9.41705 -14.3832 -8.76315 255 255 255
-20.3406 -13.8308 -1.20696 255 255 255
24.5055 -13.3845 -16.511 255 255 255
-6.29198 -12.7943 -8.64345 255 255 255
-22.7435 -14.7193 1.72101 255 255 255
14.5027 -12.6783 -15.6947 255 255 255
-21.023 -14.1963 -0.464357 255 255 255
-5.31913 -12.9925 -8.67978 255 255 255
5.6159 -14.6017 -7.55995 255 255 255
12.8457 -14.6636 -9.66361 255 255 255
18.3909 -12.6579 -17.2264 255 255 255
5.39367 -14.5878 -7.63071 255 255 255
-8.99361 -13.4705 -6.49016 255 255 255
7.60164 -14.5261 -8.55442 255 255 255
-8.98877 -13.1771 -7.42906 255 255 255
-8.52768 -13.2443 -7.56133 255 255 255
5.0546 -14.7609 -7.39345 255 255 255
-16.9682 -13.3927 -4.63668 255 255 255
-17.6885 -13.9332 -3.08984 255 255 255
-14.4458 -13.4504 -5.46806 255 255 255
-10.5604 -15.3139 -1.33447 255 255 255
-5.25111 -13.281 -8.76185 255 255 255
4.90365 -14.9058 -7.46863 255 255 255
7.83597 -14.8069 -8.68077 255 255 255
13.8621 -14.8823 -10.2635 255 255 255
-18.594 -13.928 -3.32134 255 255 255
-16.5481 -13.5906 -4.84353 255 255 255
-16.5703 -13.554 -4.90997 255 255 255
-16.9426 -13.5912 -4.85547 255 255 255
4.66926 -15.0889 -7.4108 255 255 255
-17.0066 -13.8153 -4.6999 255 255 255
5.63206 -15.0524 -8.01599 255 255 255
-14.0125 -13.615 -6.22108 255 255 255
-6.67294 -13.6832 -8.62515 255 255 255
5.28656 -15.4124 -7.33902 255 255 255
24.86 -14.4066 -16.5551 255 255 255
19.1773 -13.4536 -17.4276 255 255 255
24.9115 -14.3601 -16.8539 255 255 255
26.1683 -14.6033 -16.6086 255 255 255
-16.2043 -13.9816 -5.17988 255 255 255
11.5738 -15.3588 -9.7847 255 255 255
-16.5343 -14.0543 -5.00372 255 255 255
-15.6605 -13.9738 -5.57146 255 255 255
-15.3673 -14.0021 -5.63127 255 255 255
25.2926 -14.6275 -16.6445 255 255 255
7.54887 -15.3712 -8.91744 255 255 255
7.94505 -15.355 -9.07851 255 255 255
-17.4217 -14.28 -4.47126 255 255 255
-21.0513 -15.2634 -0.623619 255 255 255
17.6814 -13.6914 -17.185 255 255 255
18.7223 -13.7022 -17.5603 255 255 255
19.4406 -13.6368 -18.0936 255 255 255
-9.92491 -16.1934 -1.675 255 255 255
-23.0747 -16.1957 2.24477 255 255 255
2.10968 -16.3518 -5.25268 255 255 255
-5.11807 -14.2594 -9.06744 255 255 255
25.6737 -15.0243 -16.5497 255 255 255
4.18463 -15.8706 -7.36535 255 255 255
-20.4026 -15.4693 -1.08458 255 255 255
19.053 -14.1548 -17.424 255 255 255
18.0629 -14.0689 -17.4006 255 255 255
25.7329 -15.201 -16.7946 255 255 255
16.0043 -14.1094 -16.9222 255 255 255
-15.6508 -14.7727 -5.58687 255 255 255
9.21681 -16.0634 -9.7583 255 255 255
-15.7683 -14.8829 -5.59238 255 255 255
9.52564 -16.2359 -9.69792 255 255 255
-15.2371 -15.0757 -5.86123 255 255 255
-16.9987 -15.2518 -4.96215 255 255 255
4.73428 -16.5036 -7.97188 255 255 255
-1.67068 -17.1812 -4.08047 255 255 255
2.12665 -17.0786 -5.56141 255 255 255
17.6105 -14.7313 -17.3336 255 255 255
21.2585 -15.0656 -17.4635 255 255 255
2.24153 -17.2938 -5.49912 255 255 255
-18.5448 -15.9552 -3.33452 255 255 255
-16.6121 -15.641 -4.9663 255 255 255
-9.40126 -17.3856 -2.05799 255 255 255
1.77244 -17.5805 -4.955 255 255 255
21.0095 -15.7266 -16.5358 255 255 255
-9.34321 -17.3882 -2.23708 255 255 255
9.7505 -16.8313 -9.81125 255 255 255
18.9333 -14.9139 -18.3666 255 255 255
9.02228 -16.8079 -9.75035 255 255 255
-20.332 -16.8356 -1.33015 255 255 255
2.5924 -17.8302 -5.67005 255 255 255
-20.4937 -17.0742 -0.917525 255 255 255
-16.1732 -16.0111 -5.36962 255 255 255
0.958976 -18.4748 -3.31313 255 255 255
-18.6589 -16.5484 -3.31093 255 255 255
16.828 -15.5262 -17.2393 255 255 255
-22.8614 -17.8848 1.89654 255 255 255
-0.399161 -18.4678 -3.47339 255 255 255
-15.7874 -16.2086 -5.60486 255 255 255
8.14126 -17.3568 -9.60187 255 255 255
17.77 -15.7167 -17.5945 255 255 255
24.7987 -16.675 -17.076 255 255 255
24.4207 -16.1552 -18.4936 255 255 255
24.7752 -16.8981 -16.8354 255 255 255
3.79954 -17.751 -7.96298 255 255 255
12.255 -16.0801 -15.5668 255 255 255
7.97516 -17.7046 -9.46739 255 255 255
-15.4797 -16.581 -5.65629 255 255 255
4.40675 -17.8435 -8.17565 255 255 255
18.0853 -16.1988 -17.3912 255 255 255
20.7925 -16.2713 -18.0247 255 255 255
-9.17136 -18.8907 -1.04011 255 255 255
-20.2781 -17.6677 -1.28132 255 255 255
4.21747 -17.9975 -7.85467 255 255 255
-22.7137 -17.8755 -0.247131 255 255 255
2.03723 -18.7581 -5.29756 255 255 255
-21.0041 -18.0241 -0.725972 255 255 255
14.93 -16.5505 -16.5735 255 255 255
17.6645 -16.5089 -17.5422 255 255 255
7.00392 -18.2255 -9.37443 255 255 255
17.5791 -16.6568 -17.5254 255 255 255
1.32928 -19.3438 -4.62795 255 255 255
1.34389 -19.3594 -4.59803 255 255 255
-9.95926 -19.7594 -0.081625 255 255 255
-16.1352 -17.3185 -5.83344 255 255 255
18.75 -17.0006 -17.6594 255 255 255
0.304516 -19.5521 -4.56595 255 255 255
-21.1173 -18.5752 -0.943745 255 255 255
0.983407 -19.6177 -4.80173 255 255 255
-0.248365 -19.6561 -4.53411 255 255 255
-16.2161 -17.7062 -5.5433 255 255 255
-15.8733 -17.7852 -5.80222 255 255 255
-16.1506 -17.8721 -5.56142 255 255 255
-16.0421 -17.924 -5.66643 255 255 255
24.3267 -17.9431 -18.0731 255 255 255
-20.3399 -18.9408 -1.42401 255 255 255
17.9431 -17.4426 -17.7187 255 255 255
-5.63143 -17.9625 -9.3855 255 255 255
23.0657 -18.5792 -16.3707 255 255 255
17.6183 -17.7308 -17.5811 255 255 255
17.2003 -17.7339 -17.4746 255 255 255
25.5881 -18.8536 -16.6816 255 255 255
-16.6693 -18.5193 -4.85149 255 255 255
-20.2852 -19.3294 -1.34828 255 255 255
2.39283 -20.3866 -5.27629 255 255 255
-17.0703 -18.5499 -5.06594 255 255 255
-11.2469 -21.081 0.810223 255 255 255
-8.27828 -20.075 -3.37343 255 255 255
-20.3276 -19.5109 -1.4651 255 255 255
10.7117 -19.8311 -10.1162 255 255 255
-21.1897 -19.638 -0.871981 255 255 255
-21.1269 -19.7011 -0.745732 255 255 255
9.27245 -19.8077 -9.86393 255 255 255
-0.162256 -20.8148 -4.36177 255 255 255
-21.6663 -20.0567 -0.137006 255 255 255
4.5246 -20.5283 -6.88009 255 255 255
-16.097 -18.7265 -5.99762 255 255 255
17.9255 -18.3598 -17.6707 255 255 255
-22.4701 -19.9814 -0.395401 255 255 255
-22.4796 -19.9746 -0.405942 255 255 255
-16.2741 -18.8544 -5.74644 255 255 255
-21.0732 -19.9521 -0.996127 255 255 255
9.28903 -20.1518 -9.91119 255 255 255
-0.453344 -20.9121 -4.81637 255 255 255
-21.1869 -20.1805 -0.738084 255 255 255
4.11204 -20.7658 -6.71698 255 255 255
-6.93387 -21.0814 -2.50682 255 255 255
2.64827 -21.1051 -5.54454 255 255 255
9.24969 -20.3088 -9.99149 255 255 255
4.23766 -20.8663 -6.80356 255 255 255
3.51837 -20.8113 -6.71294 255 255 255
-22.9348 -20.7556 1.212 255 255 255
2.30298 -21.2741 -5.06701 255 255 255
-21.6757 -20.1655 -0.998649 255 255 255
-16.8548 -19.5086 -4.78653 255 255 255
-7.84532 -22.002 -0.0349382 255 255 255
-16.2191 -19.5702 -5.33874 255 255 255
1.35899 -21.5218 -4.78994 255 255 255
9.4266 -20.4831 -10.4573 255 255 255
8.514 -20.7367 -9.57202 255 255 255
8.52726 -20.7585 -9.52766 255 255 255
-8.78646 -21.9512 -0.563362 255 255 255
14.6432 -20.1385 -13.3072 255 255 255
-22.9719 -21.1507 1.26374 255 255 255
-20.3041 -20.631 -1.48238 255 255 255
25.2459 -20.1446 -17.2059 255 255 255
25.706 -20.2005 -17.3222 255 255 255
4.67006 -21.4396 -7.1198 255 255 255
3.70814 -21.5438 -6.61292 255 255 255
-20.364 -20.7894 -1.62074 255 255 255
1.88585 -21.8512 -5.21576 255 255 255
1.72894 -21.9182 -5.13483 255 255 255
21.3331 -19.7718 -17.8025 255 255 255
-21.1531 -21.1435 -0.870567 255 255 255
17.9584 -19.4896 -17.9396 255 255 255
8.81835 -21.2735 -9.76475 255 255 255
8.82422 -21.2832 -9.74497 255 255 255
8.69477 -21.3189 -9.64945 255 255 255
-20.3301 -21.1046 -1.55005 255 255 255
10.6455 -21.4059 -10.1941 255 255 255
16.9765 -19.6289 -17.5731 255 255 255
24.8729 -20.4673 -17.4481 255 255 255
9.46221 -21.3962 -10.2163 255 255 255
-17.7645 -20.2929 -5.42228 255 255 255
-16.5088 -20.3876 -5.64773 255 255 255
-22.5485 -21.4232 -0.590497 255 255 255
25.5559 -20.7348 -17.4411 255 255 255
-16.9438 -20.512 -5.33157 255 255 255
-16.7623 -20.5308 -5.43212 255 255 255
-20.3842 -21.3817 -1.68331 255 255 255
-16.9 -20.7329 -5.26375 255 255 255
5.59817 -22.2289 -7.52932 255 255 255
9.41208 -21.7719 -10.3005 255 255 255
-7.55101 -22.1703 -3.91762 255 255 255
-23.3118 -22.181 1.24135 255 255 255
-16.5261 -20.7906 -5.93626 255 255 255
6.21767 -22.5052 -7.9585 255 255 255
-9.55364 -23.5119 -0.0217024 255 255 255
-17.7161 -21.6621 -3.51258 255 255 255
-9.41931 -23.5232 -0.253962 255 255 255
-20.3414 -22.0873 -1.62933 255 255 255
-10.4757 -23.7274 0.0395619 255 255 255
9.75991 -22.2848 -10.6951 255 255 255
-22.9995 -23.0286 1.73369 255 255 255
-7.98241 -22.6732 -4.13394 255 255 255
11.7993 -22.5932 -10.4777 255 255 255
-16.8647 -21.5918 -4.93084 255 255 255
2.96826 -23.1327 -6.22386 255 255 255
8.95392 -22.4204 -10.2785 255 255 255
-8.17802 -23.5154 -1.79547 255 255 255
7.16181 -22.8023 -8.72958 255 255 255
-7.69305 -22.7341 -4.44905 255 255 255
9.21332 -22.6067 -10.2642 255 255 255
16.9745 -21.0239 -17.5665 255 255 255
-20.345 -22.4873 -1.64686 255 255 255
25.6093 -21.8765 -17.5814 255 255 255
-0.301271 -23.2844 -5.61175 255 255 255
-22.201 -22.6688 -0.91942 255 255 255
2.17863 -23.691 -5.69568 255 255 255
11.9871 -23.0465 -10.6714 255 255 255
0.664532 -23.6637 -5.49569 255 255 255
10.1758 -22.9105 -11.0282 255 255 255
17.2276 -21.5035 -17.5717 255 255 255
25.8053 -22.2764 -17.8401 255 255 255
24.8175 -22.4686 -17.2302 255 255 255
24.8125 -22.4556 -17.2558 255 255 255
-21.8249 -22.9689 -1.41191 255 255 255
-17.0209 -22.2677 -5.3188 255 255 255
2.58257 -23.8919 -6.3229 255 255 255
24.7454 -22.7011 -16.9355 255 255 255
-18.5682 -22.7193 -3.75224 255 255 255
17.4209 -21.7749 -17.7902 255 255 255
16.2701 -22.8058 -14.1864 255 255 255
-17.006 -22.4705 -5.296 255 255 255
18.8835 -21.7842 -18.428 255 255 255
-18.5774 -22.8797 -3.76594 255 255 255
17.0769 -21.9657 -17.6821 255 255 255
11.917 -23.6647 -10.9373 255 255 255
2.94776 -24.1892 -6.6372 255 255 255
4.83302 -23.979 -8.03448 255 255 255
12.7727 -23.9698 -11.0017 255 255 255
1.2941 -24.4951 -6.03506 255 255 255
7.50359 -23.9639 -9.8351 255 255 255
1.56902 -24.5823 -6.19692 255 255 255
1.58296 -24.6006 -6.15705 255 255 255
-19.5883 -23.9801 -1.62119 255 255 255
-20.6905 -24.0026 -1.21839 255 255 255
13.3566 -24.1411 -11.3106 255 255 255
-0.0271912 -24.4631 -6.41162 255 255 255
4.63396 -24.3073 -8.24167 255 255 255
-21.4909 -24.061 -1.02394 255 255 255
-2.00354 -24.4612 -6.1266 255 255 255
25.3682 -23.5693 -17.1162 255 255 255
19.1517 -22.5912 -18.6785 255 255 255
23.0997 -23.1905 -18.0831 255 255 255
5.52192 -24.4684 -8.94022 255 255 255
-22.1031 -24.4471 -0.515296 255 255 255
1.69664 -24.671 -6.85738 255 255 255
3.68196 -24.9719 -7.01232 255 255 255
-8.96254 -25.7787 -0.564045 255 255 255
2.50823 -25.1444 -6.25616 255 255 255
1.74553 -25.0992 -6.46041 255 255 255
-5.11285 -24.5958 -5.94707 255 255 255
25.5284 -24.0342 -17.1138 255 255 255
26.392 -23.7024 -18.2522 255 255 255
5.50697 -24.8315 -8.85044 255 255 255
-16.9399 -23.6892 -5.58837 255 255 255
-8.72693 -25.9601 -0.828331 255 255 255
-9.42197 -25.7897 -1.12448 255 255 255
-20.265 -24.597 -1.85807 255 255 255
25.7835 -24.2274 -17.1405 255 255 255
-2.77516 -24.9846 -6.38274 255 255 255
4.11264 -25.1109 -8.45742 255 255 255
-21.8715 -25.0755 -0.486341 255 255 255
14.7562 -25.1964 -11.4992 255 255 255
-8.73554 -26.4226 -0.833863 255 255 255
-17.1446 -24.2894 -5.35442 255 255 255
-0.336742 -25.5902 -6.76696 255 255 255
-12.0712 -26.598 0.0486615 255 255 255
-12.2559 -26.4101 -0.370338 255 255 255
-17.3161 -24.4439 -5.39652 255 255 255
2.19562 -25.9809 -6.62871 255 255 255
19.0186 -24.0348 -18.0744 255 255 255
25.432 -24.6945 -17.7163 255 255 255
15.3441 -25.7569 -12.2457 255 255 255
14.939 -25.678 -12.3226 255 255 255
18.358 -24.3252 -17.7809 255 255 255
-21.7786 -25.7706 -0.94106 255 255 255
-20.8965 -25.7354 -1.33218 255 255 255
14.7973 -25.7486 -12.2808 255 255 255
-8.79184 -27.0617 -0.943672 255 255 255
2.5949 -26.4296 -6.80243 255 255 255
2.6025 -26.4403 -6.77983 255 255 255
-7.75729 -26.2541 -4.48216 255 255 255
11.1282 -25.2307 -13.4256 255 255 255
-17.5239 -25.0544 -5.27193 255 255 255
20.6227 -24.5645 -18.8597 255 255 255
-19.4235 -25.9826 -2.35986 255 255 255
15.4577 -26.0155 -12.9958 255 255 255
-21.3903 -26.1965 -1.25194 255 255 255
15.8498 -26.2242 -12.7589 255 255 255
16.9619 -26.084 -13.5381 255 255 255
-23.0496 -26.2127 -0.952528 255 255 255
15.5393 -26.0522 -13.5093 255 255 255
-11.3001 -27.6852 -0.63114 255 255 255
11.189 -25.7058 -13.9795 255 255 255
-18.7001 -26.1869 -4.04148 255 255 255
25.7485 -26.0204 -17.9015 255 255 255
-1.889 -27.1809 -6.72466 255 255 255
2.94483 -27.5527 -7.18079 255 255 255
4.8741 -25.7594 -13.5647 255 255 255
3.35398 -27.4937 -7.62888 255 255 255
-21.3005 -27.0763 -1.56913 255 255 255
-20.9401 -27.1906 -1.34352 255 255 255
16.9798 -26.9973 -13.5644 255 255 255
21.0121 -25.946 -18.6486 255 255 255
24.7789 -26.9754 -17.5888 255 255 255
24.7774 -26.9721 -17.5963 255 255 255
-20.617 -27.6865 -1.73139 255 255 255
-5.01787 -27.9371 -5.99239 255 255 255
21.1319 -26.4234 -18.6325 255 255 255
3.36451 -26.5988 -13.2336 255 255 255
-12.489 -28.7722 -1.23919 255 255 255
10.5722 -27.0882 -13.8068 255 255 255
17.0861 -26.4409 -17.9038 255 255 255
25.2357 -27.1827 -17.785 255 255 255
17.2307 -26.5312 -17.8185 255 255 255
-10.4576 -28.9233 -1.67375 255 255 255
11.7989 -27.2585 -14.1035 255 255 255
-21.6328 -27.9309 -1.53397 255 255 255
-20.9614 -28.0686 -1.46403 255 255 255
23.6272 -26.7873 -19.6032 255 255 255
17.1227 -26.8449 -17.8167 255 255 255
17.2459 -26.884 -17.8904 255 255 255
23.601 -27.6689 -17.1984 255 255 255
17.1939 -26.9687 -17.9143 255 255 255
-10.0359 -29.4097 -1.76638 255 255 255
-11.7836 -29.4166 -1.32468 255 255 255
-20.5091 -28.2915 -2.36632 255 255 255
6.77688 -27.326 -14.4367 255 255 255
6.77554 -27.324 -14.4411 255 255 255
-10.0861 -29.5973 -1.76985 255 255 255
-1.50948 -28.9826 -6.94893 255 255 255
17.0808 -27.3425 -17.9598 255 255 255
6.17122 -27.684 -14.214 255 255 255
11.0915 -28.1761 -13.9516 255 255 255
3.80405 -27.6395 -13.7634 255 255 255
2.57682 -29.4643 -7.37878 255 255 255
-20.8793 -28.8947 -2.00695 255 255 255
6.48194 -27.8834 -14.3596 255 255 255
-8.93535 -28.0901 -9.12101 255 255 255
3.09004 -29.6588 -7.73011 255 255 255
18.9862 -27.8538 -18.3089 255 255 255
4.60029 -28.0894 -13.6242 255 255 255
4.26233 -28.1532 -13.4678 255 255 255
-8.85201 -28.3153 -9.00783 255 255 255
-8.85037 -28.3171 -9.00375 255 255 255
-8.50086 -29.987 -3.45973 255 255 255
17.1077 -28.0579 -17.8298 255 255 255
17.815 -28.0315 -18.1463 255 255 255
18.0375 -28.0119 -18.2409 255 255 255
-21.379 -29.5111 -1.3642 255 255 255
-13.1114 -30.1605 -1.93415 255 255 255
-18.2345 -29.9259 -1.41803 255 255 255
-1.23722 -29.8651 -7.23969 255 255 255
-21.7648 -29.8301 -0.87438 255 255 255
-1.00151 -29.9491 -7.35595 255 255 255
-18.0116 -30.0151 -1.56228 255 255 255
25.0013 -29.1608 -17.615 255 255 255
-23.0178 -29.6406 -1.68325 255 255 255
10.3981 -29.2488 -13.6777 255 255 255
-21.6524 -29.8717 -1.39823 255 255 255
20.4818 -28.8745 -17.8433 255 255 255
-14.4441 -31.0372 -1.64561 255 255 255
-16.9557 -30.8427 -1.44834 255 255 255
-13.8141 -31.0334 -2.22994 255 255 255
-19.7347 -31.0476 -1.06456 255 255 255
-15.6563 -31.1793 -2.20896 255 255 255
4.05595 -32.1793 -6.37208 255 255 255
13.6336 -32.3416 -10.4904 255 255 255
-3.63612 -31.9737 -6.82189 255 255 255
6.19104 -32.0353 -9.61314 255 255 255
6.78559 -32.0192 -9.85874 255 255 255
-4.13505 -32.2108 -5.98975 255 255 255
19.0551 -31.824 -14.1559 255 255 255
-11.1152 -33.1082 -1.34191 255 255 255
-15.5493 -32.5253 -2.11245 255 255 255
19.1908 -32.2734 -14.1194 255 255 255
-20.3182 -33.3663 1.54423 255 255 255
-21.9395 -32.6856 -1.06272 255 255 255
-9.68255 -33.8924 -1.51075 255 255 255
-11.7177 -33.8419 -1.16522 255 255 255
-6.54732 -33.1809 -6.06978 255 255 255
-1.70975 -33.1797 -7.8662 255 255 255
-7.96552 -33.9126 -3.36875 255 255 255
2.05476 -34.1359 -5.81875 255 255 255
-8.52366 -34.0204 -3.18415 255 255 255
13.2683 -33.8512 -10.7228 255 255 255
-11.0221 -34.1805 -2.40402 255 255 255
3.09773 -34.1132 -7.23374 255 255 255
-9.49341 -34.7368 -1.59143 255 255 255
-9.48499 -34.478 -2.34743 255 255 255
3.06706 -34.2446 -7.32747 255 255 255
19.9992 -33.5943 -14.3865 255 255 255
-14.9959 -34.0769 -2.62035 255 255 255
-8.38189 -34.566 -3.27013 255 255 255
8.07451 -33.8589 -10.925 255 255 255
14.4634 -34.2461 -11.4083 255 255 255
8.49801 -33.8039 -11.3764 255 255 255
19.907 -33.7965 -14.4084 255 255 255
-4.49539 -33.8688 -7.35809 255 255 255
19.4988 -33.7302 -14.5761 255 255 255
-17.2554 -34.1149 -2.37597 255 255 255
6.03611 -33.9608 -10.3091 255 255 255
15.8805 -34.336 -11.7549 255 255 255
21.3438 -33.6112 -15.7384 255 255 255
21.34 -33.6041 -15.756 255 255 255
-9.20145 -34.8967 -2.53247 255 255 255
22.474 -33.8142 -15.3615 255 255 255
-11.6601 -34.4511 -3.33302 255 255 255
-5.41249 -34.329 -5.82772 255 255 255
-4.01341 -34.1091 -7.10219 255 255 255
-4.24481 -34.1654 -7.07446 255 255 255
-6.96446 -34.1333 -6.28727 255 255 255
5.22844 -34.187 -9.91986 255 255 255
23.3868 -33.6867 -16.4625 255 255 255
12.5717 -34.1521 -12.1805 255 255 255
-18.309 -34.1252 -2.59857 255 255 255
-1.89963 -34.2198 -7.86239 255 255 255
-9.18577 -34.8675 -3.32753 255 255 255
4.56467 -34.4164 -9.18966 255 255 255
16.0841 -34.5387 -12.1288 255 255 255
20.9815 -33.9357 -15.6982 255 255 255
-17.3566 -34.4055 -2.68607 255 255 255
16.5681 -34.3482 -13.2131 255 255 255
22.9926 -34.0028 -16.2709 255 255 255
-9.55566 -35.266 -2.79078 255 255 255
12.6756 -34.4348 -12.5017 255 255 255
1.00905 -35.0341 -7.44616 255 255 255
-2.90473 -34.718 -7.56305 255 255 255
3.86101 -35.1014 -8.25915 255 255 255
2.38616 -35.2641 -7.31198 255 255 255
4.78411 -34.6704 -10.1142 255 255 255
-16.091 -34.7506 -3.27326 255 255 255
-10.2749 -35.4518 -2.73078 255 255 255
-0.962173 -34.8954 -8.01454 255 255 255
19.2263 -34.4563 -15.2526 255 255 255
-8.98598 -35.4691 -4.06035 255 255 255
-8.61886 -35.5165 -4.03457 255 255 255
11.9511 -34.8648 -12.5886 255 255 255
11.5737 -35.055 -12.5529 255 255 255
-10.5595 -35.9865 -2.69519 255 255 255
-7.45008 -35.5017 -5.86304 255 255 255
6.08632 -35.6575 -9.65141 255 255 255
1.77437 -36.0536 -8.01907 255 255 255
-22.0298 -35.9646 -0.829109 255 255 255
-0.682812 -36.2961 -7.47936 255 255 255
25.0079 -35.3065 -18.0276 255 255 255
10.7249 -35.9534 -12.3552 255 255 255
8.26243 -36.0858 -11.791 255 255 255
18.9092 -35.665 -16.1855 255 255 255
-15.0573 -36.322 -3.9941 255 255 255
18.1538 -35.8812 -15.4247 255 255 255
-8.38944 -36.5452 -6.5471 255 255 255
-18.2909 -36.887 -2.01056 255 255 255
-18.173 -37.092 -1.46829 255 255 255
7.21792 -36.4682 -11.9327 255 255 255
0.850662 2.90339 -13.324 255 255 255
-20.4547 -1.57001 3.89212 255 255 255
25.9968 0.180189 -15.5473 255 255 255
-20.3752 -0.271595 0.0945172 255 255 255
-20.2658 -0.748088 0.335915 255 255 255
26.1528 -0.176112 -16.9066 255 255 255
-23.2869 -1.85279 2.15376 255 255 255
24.8751 -1.68148 -16.1576 255 255 255
-20.3502 -2.51541 0.0508572 255 255 255
-16.8941 0.152673 -8.09609 255 255 255
-22.9441 -3.89495 2.96477 255 255 255
21.0453 -1.63975 -17.2339 255 255 255
-19.804 -4.19196 2.18176 255 255 255
-20.7503 -4.20834 0.905937 255 255 255
16.023 -0.710441 -19.8282 255 255 255
25.5533 -3.5967 -15.9234 255 255 255
25.5423 -3.57888 -15.9523 255 255 255
-20.4178 -4.06521 -0.161743 255 255 255
8.888 -1.101 -17.04 255 255 255
25.3722 -3.82085 -16.0228 255 255 255
9.92156 -1.38006 -17.4886 255 255 255
15.3873 -1.33267 -19.4699 255 255 255
-21.6531 -4.76552 0.822023 255 255 255
25.5951 -4.12989 -15.8265 255 255 255
26.1457 -4.2545 -15.9012 255 255 255
21.0557 -3.28417 -17.215 255 255 255
-20.1625 -4.79126 -0.399321 255 255 255
25.1048 -4.36203 -16.1959 255 255 255
21.2119 -4.04884 -16.5642 255 255 255
25.1319 -4.67737 -16.4702 255 255 255
-19.1082 -5.29956 -2.36031 255 255 255
26.8737 -6.19663 -16.8452 255 255 255
21.5246 -5.71367 -16.7264 255 255 255
8.8668 -5.9317 -12.1952 255 255 255
-22.7905 -7.96956 2.58769 255 255 255
21.2295 -5.88791 -16.6733 255 255 255
-18.1876 -7.07447 -1.9421 255 255 255
-22.4437 -7.79978 0.499906 255 255 255
25.5016 -7.20815 -16.4866 255 255 255
-18.5166 -7.29972 -2.72972 255 255 255
-21.4367 -8.0348 -0.133718 255 255 255
23.1327 -7.59266 -15.7228 255 255 255
-18.0687 -7.67141 -2.59812 255 255 255
-4.40255 -7.01739 -8.70678 255 255 255
-4.44587 -6.94483 -8.83407 255 255 255
-22.2621 -9.94765 4.26505 255 255 255
21.461 -7.17265 -16.9628 255 255 255
-17.3467 -7.59391 -3.85676 255 255 255
-4.32803 -7.67189 -7.71344 255 255 255
-17.8213 -8.60553 -1.28188 255 255 255
6.34146 -7.28438 -12.3522 255 255 255
-20.8437 -8.72932 -0.269593 255 255 255
19.2103 -7.15849 -17.3849 255 255 255
18.0548 -6.98118 -17.7313 255 255 255
16.0405 -5.75344 -20.5244 255 255 255
25.5887 -8.88568 -16.5903 255 255 255
8.37779 -9.0212 -11.489 255 255 255
21.1823 -8.58481 -16.865 255 255 255
-21.3337 -10.6917 1.48573 255 255 255
-18.502 -9.4315 -2.9134 255 255 255
-21.8571 -10.4327 0.521105 255 255 255
26.5884 -9.7736 -17.0093 255 255 255
23.6382 -9.90323 -15.8982 255 255 255
21.1614 -9.29088 -16.943 255 255 255
14.8145 -10.0752 -13.2676 255 255 255
12.8587 -10.1167 -12.5799 255 255 255
-14.0461 -10.4927 -3.21576 255 255 255
0.108705 -10.3221 -8.08967 255 255 255
-20.0428 -11.0942 -0.46391 255 255 255
-18.3164 -10.3843 -2.95637 255 255 255
26.2104 -10.6147 -16.8973 255 255 255
-14.8546 -11.1136 -3.19055 255 255 255
-14.4875 -11.0671 -3.38917 255 255 255
25.0078 -10.8332 -16.6939 255 255 255
-4.11994 -11.141 -6.89573 255 255 255
-16.7475 -11.7326 -2.78503 255 255 255
-8.45785 -11.5501 -5.81213 255 255 255
-4.99439 -11.5612 -6.84226 255 255 255
9.18478 -13.0609 -7.6412 255 255 255
-18.5088 -11.8054 -2.95239 255 255 255
26.752 -11.7933 -17.2767 255 255 255
21.3121 -11.3359 -17.1114 255 255 255
8.77839 -13.1574 -7.98439 255 255 255
9.86743 -13.622 -8.49211 255 255 255
9.65371 -13.6737 -8.38796 255 255 255
7.40272 -13.6655 -7.86574 255 255 255
13.6943 -12.1291 -14.6986 255 255 255
-15.2963 -12.3942 -5.09138 255 255 255
-22.5242 -14.1451 1.80152 255 255 255
17.5791 -12.2664 -15.8468 255 255 255
18.3533 -11.933 -17.0339 255 255 255
-21.1582 -13.6214 -0.358728 255 255 255
-17.079 -12.4785 -4.68242 255 255 255
-18.4885 -13.1363 -2.62682 255 255 255
24.6654 -12.9909 -16.4614 255 255 255
25.5903 -12.7443 -17.8543 255 255 255
-8.36308 -12.6089 -7.52813 255 255 255
-18.2897 -13.2126 -3.03722 255 255 255
-20.4758 -14.2425 0.358559 255 255 255
-21.1952 -13.9621 -0.511776 255 255 255
20.7686 -12.2449 -18.605 255 255 255
-15.2885 -12.8483 -5.6898 255 255 255
1.264 -15.7075 -3.09383 255 255 255
18.6841 -12.7387 -17.1852 255 255 255
-16.89 -13.368 -4.80703 255 255 255
-9.17513 -13.2821 -7.38494 255 255 255
3.67877 -15.0106 -6.37849 255 255 255
-8.85487 -13.3862 -7.35768 255 255 255
1.71805 -15.2353 -5.16174 255 255 255
17.4305 -12.7875 -17.1743 255 255 255
3.51494 -15.0904 -6.36857 255 255 255
18.4631 -12.8636 -17.4919 255 255 255
-18.3636 -13.9735 -3.19925 255 255 255
23.5313 -13.3263 -18.3697 255 255 255
-14.9061 -13.6386 -5.66006 255 255 255
1.66997 -15.7957 -4.67125 255 255 255
-20.2439 -14.8439 -1.03546 255 255 255
23.6161 -13.7807 -18.0999 255 255 255
-20.8275 -15.255 -0.208714 255 255 255
17.0903 -13.5273 -16.9886 255 255 255
-15.0236 -14.1484 -5.70107 255 255 255
1.08407 -16.4596 -3.97499 255 255 255
-18.4085 -14.6831 -3.37256 255 255 255
-16.3705 -14.257 -5.2276 255 255 255
23.9616 -14.6783 -16.7596 255 255 255
17.647 -13.9216 -17.0274 255 255 255
-17.2835 -15.4818 -1.79877 255 255 255
-17.0581 -14.7626 -3.94269 255 255 255
-9.65887 -14.3517 -7.50493 255 255 255
-19.7695 -16.0292 0.262992 255 255 255
-18.3423 -15.1076 -3.21167 255 255 255
-20.4752 -15.7104 -0.870697 255 255 255
-20.3425 -15.6604 -1.28647 255 255 255
1.98557 -16.7929 -5.09965 255 255 255
-8.61939 -16.6621 -2.54532 255 255 255
11.8889 -16.2555 -10.0833 255 255 255
-17.9355 -15.4759 -3.21139 255 255 255
-10.0254 -16.8188 -1.88314 255 255 255
-20.3022 -16.1118 -1.22578 255 255 255
-15.2326 -15.3318 -5.87683 255 255 255
-8.54514 -17.3158 -2.34931 255 255 255
-9.02299 -17.0764 -3.00237 255 255 255
-20.8828 -16.7478 -0.6546 255 255 255
-17.9072 -16.2008 -3.25628 255 255 255
-1.20894 -17.8061 -3.63207 255 255 255
18.7676 -15.5456 -17.4415 255 255 255
-0.181908 -18.3624 -3.57425 255 255 255
-0.174361 -18.3775 -3.54684 255 255 255
-18.4761 -16.9196 -2.80605 255 255 255
1.80232 -18.8078 -3.97318 255 255 255
-20.3812 -18.0236 0.276218 255 255 255
-16.2009 -16.5403 -5.60675 255 255 255
-16.1911 -16.5561 -5.5812 255 255 255
2.51958 -18.4165 -6.31055 255 255 255
-18.1526 -17.7119 -2.84435 255 255 255
-18.3434 -17.5503 -3.27055 255 255 255
21.0203 -16.7223 -17.8728 255 255 255
-15.6157 -16.9847 -5.83628 255 255 255
-15.5991 -17.0032 -5.7991 255 255 255
-18.1502 -17.9534 -2.85062 255 255 255
20.9458 -17.1419 -17.4338 255 255 255
-6.92715 -17.2115 -8.7191 255 255 255
18.5675 -16.9154 -17.4331 255 255 255
20.878 -17.3434 -17.0954 255 255 255
5.76756 -18.4886 -9.03254 255 255 255
6.42072 -18.5105 -9.19731 255 255 255
25.6342 -17.5548 -17.9774 255 255 255
26.3495 -17.995 -17.3359 255 255 255
15.1173 -17.3367 -16.5819 255 255 255
18.7262 -17.1563 -18.2122 255 255 255
-18.1958 -18.3508 -3.43635 255 255 255
-18.2977 -18.4953 -3.21268 255 255 255
-18.1987 -18.7688 -3.01929 255 255 255
-22.8903 -19.2672 -0.222721 255 255 255
-0.170185 -20.2607 -4.42216 255 255 255
26.4124 -19.0157 -16.4717 255 255 255
-22.0795 -19.9318 -0.443929 255 255 255
18.6855 -18.3772 -17.769 255 255 255
25.7076 -19.3902 -16.7737 255 255 255
-6.90337 -20.9433 -2.37661 255 255 255
-21.4769 -20.2167 -0.213924 255 255 255
-16.4389 -19.1394 -5.18707 255 255 255
-9.99951 -21.5634 0.28314 255 255 255
10.5613 -20.2537 -10.0875 255 255 255
-16.7068 -19.1896 -5.18842 255 255 255
8.48337 -20.313 -9.52182 255 255 255
9.58582 -20.2767 -10.0095 255 255 255
24.9287 -19.1965 -18.0106 255 255 255
4.64476 -20.7971 -6.97847 255 255 255
25.1575 -19.7368 -17.0022 255 255 255
-18.3507 -19.849 -3.4668 255 255 255
-18.5875 -19.7953 -3.58532 255 255 255
8.98321 -20.5123 -9.89141 255 255 255
3.82228 -21.1437 -6.66239 255 255 255
3.81483 -21.1288 -6.68952 255 255 255
9.71804 -20.6532 -10.159 255 255 255
-16.2055 -19.7784 -5.54996 255 255 255
0.00817852 -21.6622 -4.8516 255 255 255
21.1166 -19.6518 -17.5448 255 255 255
21.1108 -19.5977 -18.1555 255 255 255
-9.36202 -22.4837 -0.0332564 255 255 255
8.95299 -21.1201 -9.86877 255 255 255
21.1012 -19.7419 -18.1733 255 255 255
8.37678 -21.1172 -10.0991 255 255 255
19.0241 -19.7658 -17.8323 255 255 255
-16.0415 -20.1919 -6.00236 255 255 255
-16.035 -20.1993 -5.98785 255 255 255
-16.3047 -20.4156 -5.56602 255 255 255
-23.0245 -22.0599 1.35965 255 255 255
-7.27964 -21.8572 -4.84215 255 255 255
-7.33357 -21.7927 -4.98059 255 255 255
5.07224 -22.2616 -7.23181 255 255 255
25.8871 -20.9631 -17.5982 255 255 255
-17.4965 -20.9077 -4.95757 255 255 255
-19.3603 -21.2506 -3.64415 255 255 255
-7.29638 -22.059 -5.17967 255 255 255
-20.4389 -22.0683 -1.29016 255 255 255
22.1382 -20.8801 -18.0103 255 255 255
7.96072 -22.3946 -9.14383 255 255 255
25.9742 -21.3501 -17.6978 255 255 255
-16.2059 -21.313 -5.4622 255 255 255
-18.4167 -21.6607 -3.77002 255 255 255
-1.19858 -22.8074 -6.05533 255 255 255
17.9013 -20.982 -17.7181 255 255 255
-16.8295 -21.5973 -5.2384 255 255 255
5.20918 -23.0961 -7.54167 255 255 255
18.0483 -21.0653 -17.8053 255 255 255
18.6166 -20.916 -18.3994 255 255 255
-8.06615 -22.9552 -4.33036 255 255 255
-16.9421 -21.7437 -5.50339 255 255 255
12.2434 -23.0079 -10.8453 255 255 255
-22.5001 -22.8365 -0.82451 255 255 255
8.21616 -23.1086 -10.0496 255 255 255
5.45878 -23.5427 -8.17162 255 255 255
1.73777 -24.0507 -5.83249 255 255 255
-20.959 -23.6364 -0.56854 255 255 255
-22.4435 -23.497 -0.783766 255 255 255
8.18362 -23.6359 -10.0217 255 255 255
8.465 -23.5883 -10.4525 255 255 255
12.1803 -23.8407 -11.0207 255 255 255
-1.15528 -23.9436 -6.92487 255 255 255
14.0857 -23.9924 -11.4288 255 255 255
13.4846 -23.9643 -11.3873 255 255 255
-18.342 -23.4789 -3.64036 255 255 255
3.00604 -24.5404 -6.78915 255 255 255
3.74169 -24.379 -7.5496 255 255 255
-17.656 -22.9502 -5.41887 255 255 255
-3.01162 -24.2861 -6.42501 255 255 255
25.5892 -23.5721 -17.1329 255 255 255
25.5781 -23.5462 -17.19 255 255 255
-22.7797 -24.5503 0.724565 255 255 255
-21.3158 -24.0887 -1.46152 255 255 255
-16.6226 -23.3914 -5.27596 255 255 255
19.4753 -22.8924 -17.9714 255 255 255
19.4435 -22.8555 -18.0718 255 255 255
-17.0171 -23.4323 -5.35682 255 255 255
14.4705 -24.5511 -11.8948 255 255 255
18.8585 -23.1448 -18.0063 255 255 255
-17.0318 -23.7139 -5.42369 255 255 255
19.0229 -23.4298 -18.0708 255 255 255
-8.13072 -25.057 -4.99219 255 255 255
-20.9411 -25.0277 -1.315 255 255 255
-18.6317 -24.5501 -3.93758 255 255 255
-7.43994 -25.4871 -4.75058 255 255 255
-21.3042 -25.2419 -1.24822 255 255 255
-2.08841 -25.5542 -6.31391 255 255 255
18.5942 -23.8518 -17.9324 255 255 255
2.85735 -26.2698 -6.80569 255 255 255
26.4469 -24.9299 -18.0131 255 255 255
-1.6161 -25.8624 -6.97242 255 255 255
19.1586 -24.216 -18.8366 255 255 255
15.1602 -26.0324 -12.4968 255 255 255
-22.3258 -26.1508 -1.27672 255 255 255
-12.2681 -27.4598 -0.454685 255 255 255
-21.3479 -26.3618 -1.57576 255 255 255
-8.24889 -27.8708 -0.848596 255 255 255
-5.44106 -26.7321 -5.57768 255 255 255
24.036 -25.019 -19.7903 255 255 255
-18.4775 -25.9493 -4.11915 255 255 255
-18.6189 -26.1128 -4.20131 255 255 255
14.9184 -26.5384 -13.0169 255 255 255
4.45958 -25.5374 -13.4913 255 255 255
4.51857 -25.6262 -13.3013 255 255 255
3.77554 -27.5421 -7.53614 255 255 255
24.9117 -26.7015 -17.7155 255 255 255
-8.77847 -28.22 -3.05392 255 255 255
-4.82693 -27.8456 -5.89507 255 255 255
24.4696 -26.7003 -18.1896 255 255 255
-11.2268 -28.8345 -1.56006 255 255 255
24.1201 -27.2448 -17.4557 255 255 255
-20.6139 -28.3002 -0.72876 255 255 255
-21.2682 -28.2475 -1.5115 255 255 255
-13.0125 -29.541 -0.363423 255 255 255
22.6628 -27.9594 -17.0338 255 255 255
23.5274 -27.9592 -17.2558 255 255 255
0.244885 -28.9991 -7.84779 255 255 255
16.9189 -27.4446 -18.003 255 255 255
0.126142 -28.8236 -8.66533 255 255 255
4.83812 -27.8912 -13.7276 255 255 255
-13.7429 -30.0774 -0.835305 255 255 255
17.6876 -27.6872 -18.2996 255 255 255
-21.0032 -29.2267 -1.52761 255 255 255
-12.2011 -30.1437 -1.50412 255 255 255
-11.7548 -30.17 -1.98841 255 255 255
5.01581 -28.2523 -13.9263 255 255 255
-12.8254 -30.1778 -1.8509 255 255 255
23.7412 -28.6877 -17.8582 255 255 255
4.89644 -28.4555 -13.7208 255 255 255
-22.7844 -29.6995 -0.944089 255 255 255
-8.41156 -30.3778 -3.55135 255 255 255
20.9745 -28.6572 -18.2043 255 255 255
-21.8729 -29.7624 -1.41233 255 255 255
9.84615 -29.2683 -13.6279 255 255 255
22.9698 -29.4032 -16.8969 255 255 255
-16.2491 -30.798 -1.00564 255 255 255
23.0259 -29.6486 -17.1469 255 255 255
-21.3318 -30.3908 -1.54592 255 255 255
-20.9898 -30.2732 -2.12149 255 255 255
24.6808 -29.8765 -18.1493 255 255 255
6.90778 -30.8836 -10.6269 255 255 255
8.24403 -31.6165 -10.267 255 255 255
0.542468 -32.4381 -6.05976 255 255 255
-7.55739 -32.1033 -5.30229 255 255 255
-6.2439 -32.229 -5.39915 255 255 255
-14.6456 -32.0719 -3.40297 255 255 255
8.08247 -32.5278 -10.3402 255 255 255
-17.7689 -34.0267 -1.65805 255 255 255
-4.90136 -34.343 -5.84518 255 255 255
7.08331 -34.1697 -10.0352 255 255 255
-20.7792 -33.9291 -2.32696 255 255 255
18.5085 -33.8706 -14.7115 255 255 255
-15.6212 -34.0374 -3.81182 255 255 255
-6.18717 -34.3499 -6.14182 255 255 255
2.12951 -34.7943 -7.15485 255 255 255
-11.3455 -34.8923 -2.76431 255 255 255
18.5971 -34.0045 -14.7702 255 255 255
-7.36012 -34.4049 -6.12327 255 255 255
23.6745 -33.891 -16.6663 255 255 255
-17.0233 -34.3212 -3.30529 255 255 255
-9.04912 -35.1014 -3.53231 255 255 255
14.801 -34.8118 -11.8665 255 255 255
11.4666 -34.544 -12.1968 255 255 255
-9.08965 -35.2352 -3.83651 255 255 255
20.2053 -34.5173 -15.4681 255 255 255
22.6689 -34.2875 -17.1603 255 255 255
14.4364 -35.4955 -11.8713 255 255 255
-21.3733 -35.5626 -0.888629 255 255 255
11.7632 -35.1825 -12.6082 255 255 255
5.8685 -35.7367 -9.81267 255 255 255
-14.4531 -36.0879 -3.21807 255 255 255
-21.3392 -36.1368 -0.880777 255 255 255
18.0383 -35.5845 -14.8395 255 255 255
-0.858791 -36.0607 -8.4245 255 255 255
-9.07498 -36.3231 -5.89048 255 255 255
24.6243 -34.9087 -20.5836 255 255 255
-17.2773 -0.150923 -0.0746529 255 255 255
-20.2477 -1.50624 3.69625 255 255 255
-17.0779 -0.00489922 -0.868457 255 255 255
-17.7316 -0.318337 -1.02423 255 255 255
24.3622 -0.650293 -17.9248 255 255 255
-18.0371 -1.46485 -2.3039 255 255 255
26.3781 -1.5793 -16.5234 255 255 255
21.4714 -1.16391 -16.4137 255 255 255
9.08876 -0.0564046 -17.0599 255 255 255
25.0828 -3.1704 -15.9823 255 255 255
15.7881 -0.638042 -19.5746 255 255 255
0.50235 -3.47817 -11.982 255 255 255
21.3132 -3.99305 -17.69 255 255 255
3.71771 -2.89851 -15.5747 255 255 255
21.5293 -4.94011 -16.8279 255 255 255
14.6002 -3.73437 -19.9696 255 255 255
21.0343 -6.52336 -16.6911 255 255 255
-18.3252 -7.57104 -2.71878 255 255 255
26.2496 -7.31256 -17.9956 255 255 255
-4.24646 -8.20285 -8.48656 255 255 255
-22.7422 -10.2979 2.06794 255 255 255
-20.3441 -9.64994 -0.396134 255 255 255
-17.8707 -9.2724 -2.23001 255 255 255
-18.5914 -9.15274 -2.99069 255 255 255
-18.5529 -9.20088 -2.91075 255 255 255
25.2657 -9.30936 -16.4512 255 255 255
25.2259 -9.67259 -16.4834 255 255 255
19.9624 -9.67504 -15.9092 255 255 255
-3.17684 -10.1745 -8.12647 255 255 255
27.0912 -11.1555 -16.5294 255 255 255
-20.7824 -12.0199 -0.222446 255 255 255
21.7657 -10.9598 -18.3883 255 255 255
13.933 -11.6466 -14.0278 255 255 255
-18.1261 -12.336 -3.00065 255 255 255
8.17138 -13.8338 -7.84127 255 255 255
-21.7418 -13.3229 -0.533592 255 255 255
-18.0861 -13.5995 -3.04245 255 255 255
22.2833 -13.5153 -17.2084 255 255 255
-8.6274 -13.2346 -8.43265 255 255 255
15.4809 -15.3602 -10.4002 255 255 255
-21.273 -15.2326 -0.0297259 255 255 255
-5.10914 -13.9833 -9.1495 255 255 255
9.65198 -16.0826 -9.28886 255 255 255
0.301349 -17.3979 -3.23858 255 255 255
6.56749 -16.3393 -9.04474 255 255 255
-15.3336 -15.2648 -5.74205 255 255 255
9.28448 -16.5547 -9.74004 255 255 255
-9.58722 -17.3562 -1.79154 255 255 255
-15.1475 -15.8811 -5.72143 255 255 255
6.33775 -16.9684 -9.49233 255 255 255
26.2241 -16.3334 -17.7098 255 255 255
4.04706 -17.4281 -7.80425 255 255 255
16.0599 -15.8022 -17.0446 255 255 255
-20.5973 -17.9581 -0.827912 255 255 255
4.9767 -18.2505 -8.7097 255 255 255
2.78184 -19.5059 -5.91822 255 255 255
-19.3604 -18.2633 -3.48152 255 255 255
-17.5018 -18.6723 -4.87007 255 255 255
25.7156 -18.4187 -18.9312 255 255 255
-22.9941 -20.4141 1.36364 255 255 255
-17.4414 -18.8876 -5.25841 255 255 255
-6.84525 -21.1053 -2.69035 255 255 255
2.70182 -21.0921 -5.84082 255 255 255
8.61444 -20.5011 -9.642 255 255 255
10.1272 -20.86 -10.1972 255 255 255
2.03587 -21.7226 -5.25415 255 255 255
-8.27658 -21.4707 -4.00164 255 255 255
24.1437 -19.7727 -19.0885 255 255 255
-19.1261 -20.9958 -2.1075 255 255 255
-15.8656 -20.6002 -5.05131 255 255 255
-15.985 -20.5166 -5.29998 255 255 255
10.4294 -21.4261 -10.6326 255 255 255
22.3384 -20.5784 -17.3276 255 255 255
-22.8848 -22.133 1.24677 255 255 255
19.413 -20.328 -18.186 255 255 255
9.33897 -21.9484 -10.3698 255 255 255
21.1718 -20.6813 -17.98 255 255 255
-0.377414 -22.6688 -5.68591 255 255 255
24.1861 -21.6694 -17.0548 255 255 255
-20.7844 -22.5331 -0.907637 255 255 255
9.58323 -22.5987 -10.7781 255 255 255
-22.4183 -22.6847 -0.958966 255 255 255
-23.0992 -23.5185 1.58415 255 255 255
-22.7467 -23.5945 1.22002 255 255 255
-12.0377 -24.4788 -0.300098 255 255 255
17.9599 -22.1797 -17.8848 255 255 255
-21.4662 -24.5663 -0.836832 255 255 255
13.7887 -24.9574 -11.582 255 255 255
-0.564967 -25.3126 -7.82042 255 255 255
-10.236 -26.847 -0.228739 255 255 255
-11.0571 -26.9683 -0.448832 255 255 255
16.5265 -26.13 -12.9439 255 255 255
3.78915 -27.1957 -7.64524 255 255 255
11.3442 -26.0965 -13.7256 255 255 255
-2.25805 -27.1152 -6.76911 255 255 255
25.4901 -26.6601 -17.8438 255 255 255
-8.51906 -28.2252 -3.30475 255 255 255
-8.56559 -28.1673 -3.39541 255 255 255
22.1651 -26.3977 -18.7845 255 255 255
-20.4664 -27.7511 -1.5113 255 255 255
-1.68085 -28.4698 -6.77029 255 255 255
25.5561 -27.6742 -17.7233 255 255 255
4.15838 -27.7554 -13.5471 255 255 255
9.74569 -28.5754 -12.7721 255 255 255
-16.6548 -29.9069 -0.281637 255 255 255
4.03809 -27.9568 -13.5259 255 255 255
10.103 -28.7986 -13.4672 255 255 255
-15.9373 -30.2748 -0.987332 255 255 255
17.2626 -28.1955 -18.4485 255 255 255
4.73483 -28.8796 -13.7122 255 255 255
16.7398 -30.3317 -13.0499 255 255 255
-21.659 -30.4648 -1.18353 255 255 255
-16.4279 -31.0453 -1.29895 255 255 255
16.3154 -31.6724 -10.4497 255 255 255
-6.83764 -32.1853 -5.26301 255 255 255
5.98902 -32.2393 -9.86598 255 255 255
-16.0342 -32.9857 -1.04902 255 255 255
-15.4951 -32.6617 -2.21891 255 255 255
6.73486 -33.0514 -10.1338 255 255 255
-7.70593 -33.6375 -4.12148 255 255 255
-9.35652 -34.3095 -1.81049 255 255 255
14.5558 -34.031 -11.5081 255 255 255
-19.7918 -34.4349 0.25398 255 255 255
-16.9363 -34.0773 -1.98774 255 255 255
-10.7222 -34.9107 -1.9542 255 255 255
9.27412 -34.1328 -10.754 255 255 255
-11.985 -34.4041 -3.00676 255 255 255
-8.00146 -34.6696 -4.16285 255 255 255
23.8006 -33.7802 -16.4613 255 255 255
13.0089 -34.3068 -12.1979 255 255 255
-1.77209 -34.7624 -7.11952 255 255 255
14.4638 -34.6681 -12.1948 255 255 255
14.5835 -34.8324 -11.7689 255 255 255
2.81749 -35.4155 -6.9507 255 255 255
9.59452 -34.9475 -11.5779 255 255 255
9.59158 -34.9312 -11.6233 255 255 255
3.66015 -35.7264 -9.89471 255 255 255
17.5723 -35.6335 -14.2496 255 255 255
10.0715 -35.8423 -12.1894 255 255 255
5.17594 -35.9482 -11.0329 255 255 255
-12.946 -36.5081 -3.69748 255 255 255
-21.8186 -36.6434 -1.48294 255 255 255
-21.6255 -3.07819 2.9196 255 255 255
8.52177 -2.14888 -16.8782 255 255 255
9.16484 -2.95905 -16.6202 255 255 255
14.7575 -2.76433 -19.326 255 255 255
9.9238 -4.37126 -18.2108 255 255 255
14.8815 -10.3035 -13.3054 255 255 255
-12.0839 -10.7181 -3.85837 255 255 255
-19.1215 -11.1418 -2.99109 255 255 255
-19.2267 -11.4538 -2.7311 255 255 255
9.14972 -12.9092 -7.33592 255 255 255
-16.2161 -11.7854 -3.32797 255 255 255
-22.7092 -13.7442 1.39241 255 255 255
26.2561 -12.2956 -18.1212 255 255 255
-17.169 -13.086 -3.52669 255 255 255
6.88219 -14.3353 -8.16381 255 255 255
-21.1648 -14.482 -0.410575 255 255 255
21.3282 -13.2596 -17.314 255 255 255
1.15276 -15.5892 -4.27346 255 255 255
6.38746 -15.4076 -8.49316 255 255 255
-7.11005 -14.8668 -7.50452 255 255 255
-18.7058 -17.7345 -3.13169 255 255 255
9.05211 -20.457 -10.0767 255 255 255
12.4288 -21.0109 -10.7263 255 255 255
10.0828 -21.631 -10.4427 255 255 255
-7.60714 -22.3242 -5.72864 255 255 255
20.9244 -21.3843 -17.4165 255 255 255
-3.58858 -25.7613 -6.97627 255 255 255
-0.0598317 -26.2334 -6.69306 255 255 255
17.9535 -24.6065 -18.7077 255 255 255
-12.5879 -28.8065 0.300398 255 255 255
21.1487 -25.8757 -20.7706 255 255 255
-13.8445 -29.9974 -0.0582336 255 255 255
3.60151 -29.504 -8.40113 255 255 255
-14.7496 -30.1903 -0.548897 255 255 255
9.27259 -29.1963 -14.0878 255 255 255
8.75378 -31.8222 -10.497 255 255 255
1.84307 -33.5876 -5.77073 255 255 255
-5.62796 -33.3821 -5.28567 255 255 255
11.6531 -33.3257 -11.3145 255 255 255
-4.78044 -33.7344 -5.41072 255 255 255
-3.30994 -33.461 -6.78546 255 255 255
-14.3962 -33.744 -2.61056 255 255 255
14.6052 -34.5011 -11.6571 255 255 255
9.36193 -34.6728 -11.308 255 255 255
-7.91523 -35.1645 -5.526 255 255 255
-4.50302 -35.3149 -6.57698 255 255 255
-15.087 -35.5808 -2.38611 255 255 255
25.5891 -33.9632 -20.0827 255 255 255
-16.2796 -35.6155 -2.63005 255 255 255
20.7555 -34.3521 -18.6072 255 255 255
-6.02941 -36.2924 -5.82892 255 255 255
16.1058 -35.7147 -14.3209 255 255 255
-15.1831 0.0172582 -8.34674 255 255 255
3.34265 -1.54691 -15.1373 255 255 255
14.7981 -12.1849 -13.8927 255 255 255
17.4024 -14.6125 -17.2634 255 255 255
24.4073 -17.9756 -17.468 255 255 255
-20.3606 -20.5965 -1.27487 255 255 255
-20.139 -29.5205 -0.852408 255 255 255
9.25586 -31.5375 -10.5123 255 255 255
-19.9675 -32.0923 -1.17575 255 255 255
17.6773 -31.7319 -14.0925 255 255 255
6.21869 -35.1861 -10.5623 255 255 255
-2.33526 -35.7948 -7.32768 255 255 255
8.24044 -3.60719 -11.9323 255 255 255
8.95521 -21.6463 -9.98953 255 255 255
20.7026 -31.2436 -17.4648 255 255 255
5.68886 -4.98735 -13.6065 255 255 255
9.19052 -29.6932 -11.3913 255 255 255
25.8401 0.864541 -13.7538 255 255 255
28.1515 0.680464 -14.2929 255 255 255
-22.8351 2.8945 -1.90566 255 255 255
-22.621 2.68538 -1.68013 255 255 255
26.7448 -1.06139 -13.0422 255 255 255
26.2723 -4.79892 -14.0174 255 255 255
-22.3052 -2.9395 -1.97898 255 255 255
7.70761 -7.32043 -12.4578 255 255 255
-16.9831 -7.27956 -5.26781 255 255 255
-21.9492 -9.74491 -1.60689 255 255 255
-22.3048 -9.45271 -1.96497 255 255 255
-19.9003 -9.91771 -2.52884 255 255 255
-0.394043 -14.2769 -2.78983 255 255 255
9.86765 -13.3076 -7.68762 255 255 255
-19.0223 -10.0855 -3.92237 255 255 255
0.827428 -14.7048 -3.36862 255 255 255
-22.9029 -10.6982 -2.64711 255 255 255
-22.6533 -10.991 -2.27318 255 255 255
6.52055 -14.2691 -7.68385 255 255 255
9.34211 -13.9853 -9.00439 255 255 255
-0.674143 -16.2743 -2.59276 255 255 255
-19.8315 -12.7797 -3.39793 255 255 255
-15.027 -12.6347 -5.32382 255 255 255
0.257696 -17.0591 -3.30527 255 255 255
-22.5569 -13.0287 -2.67165 255 255 255
3.93587 -15.949 -6.46167 255 255 255
-15.1416 -12.9074 -5.67217 255 255 255
-23.8605 -13.4543 -2.24071 255 255 255
-15.5011 -13.5106 -6.1716 255 255 255
-16.6651 -13.4744 -6.03992 255 255 255
16.0489 -13.2206 -16.5272 255 255 255
-5.47439 -13.739 -9.34458 255 255 255
13.2436 -13.8889 -15.4382 255 255 255
-10.5974 -18.7083 -0.794843 255 255 255
-7.50384 -15.0468 -8.00888 255 255 255
-1.87369 -18.6006 -4.34048 255 255 255
1.17922 -19.2762 -4.69616 255 255 255
1.10155 -19.1504 -5.03165 255 255 255
2.87944 -19.8004 -6.75737 255 255 255
-16.43 -17.2704 -5.62873 255 255 255
-10.2978 -21.9413 -0.0666027 255 255 255
0.624158 -21.1098 -4.92463 255 255 255
-22.365 -17.895 -3.00492 255 255 255
17.4404 -16.6371 -17.4166 255 255 255
-9.50827 -22.433 -0.0199536 255 255 255
18.822 -17.3162 -17.8043 255 255 255
-8.62262 -22.7339 -0.568164 255 255 255
-0.710512 -22.5598 -5.67751 255 255 255
-23.6204 -20.9487 -3.5335 255 255 255
25.1553 -23.0974 -15.3166 255 255 255
25.1651 -24.1774 -15.2615 255 255 255
-4.31813 -24.5182 -5.95211 255 255 255
-1.19864 -25.1611 -6.25281 255 255 255
1.76718 -25.5335 -6.62753 255 255 255
-5.58809 -25.326 -5.64756 255 255 255
4.3983 -25.1881 -9.01769 255 255 255
24.6973 -25.2534 -14.9862 255 255 255
24.681 -24.9637 -15.4832 255 255 255
3.44641 -26.4946 -8.00831 255 255 255
-5.31496 -26.5538 -5.58881 255 255 255
-2.09541 -27.0286 -6.82499 255 255 255
17.1945 -27.41 -12.2599 255 255 255
-10.9161 -28.9915 -2.04639 255 255 255
-11.0638 -28.796 -2.36018 255 255 255
17.0846 -28.4483 -13.0147 255 255 255
